2.5513 -2.1023 -4.957 -0.056472015 0.6539268 0.7544472 
16.33855 -0.0178 -10.761 0.30305955 -0.36322397 -0.8810353 
8.081283 -1.4944 -7.034 0.5680484 0.60309184 0.56000113 
1.24788 0.4022 6.311 -0.8489054 -0.23686966 -0.472496 
35.47545 0.7828 -10.493 0.39628553 -0.8811368 0.2579841 
-1.39428 5.3159 1.362 0.1485144 0.98638034 0.070691295 
17.83545 2.1126 0.118 -0.8062103 0.52713394 -0.26861635 
-3.10435 -3.9019 5.885 -0.56442535 0.61706877 -0.54831576 
35.18645 7.0776 -18.212 0.57425874 -0.03024442 -0.81811506 
26.92075 2.1857 -15.399 -0.556648 -0.056916308 -0.82879645 
-6.16945 4.5209 1.488 -0.7454913 0.65122753 0.14193445 
-25.44025 4.709 8.402 -0.15023507 0.9743085 0.16778679 
31.00655 2.1515 -16.001 -0.7714584 -0.5710752 -0.28057986 
-29.78225 -14.322 10.192 -0.057501685 0.9895012 0.13259324 
26.70105 7.6987 -14.194 -0.85893905 0.24958792 -0.4471348 
-22.32415 -9.4651 16.616 0.3044339 -0.5304893 0.79113907 
37.80575 4.9297 -6.862 -0.6275925 0.12573178 -0.7683223 
32.04165 3.4258 -16.148 -0.66922635 -0.5373679 -0.51319766 
-9.99805 3.5465 6.016 -0.5875215 0.63610655 0.5001869 
13.67635 7.6906 -2.915 0.14830276 0.97539264 0.16314238 
15.40568 8.2121 -4.507 0.7200051 -0.444879 -0.53261185 
29.17445 0.0805 -12.279 0.25347605 -0.86008424 -0.44272453 
27.36445 8.6743 -14.534 0.44789925 0.5042542 -0.7383183 
18.52945 3.6012 -0.372 -0.1430361 0.0033440683 0.9897118 
22.19995 -1.2204 -8.14 -0.2835046 0.8124121 -0.5095211 
32.72325 11.4532 -8.428 0.975381 -0.10542003 -0.19369705 
23.37725 6.1367 -12.986 0.84974074 -0.36628726 0.37917587 
26.63425 3.8474 -3.342 0.47476783 0.1351916 -0.86966586 
23.80685 5.4891 -2.943 -0.06741581 0.16649581 0.98373485 
33.33565 8.4679 -6.519 0.4362152 -0.38951024 -0.8111708 
4.05529 2.3806 -6.656 0.9713425 0.06340365 0.22907151 
35.06165 2.5591 -7.473 -0.028227646 -0.45855826 0.8882159 
-12.60975 -2.4537 -0.316 -0.3599108 0.13331333 0.9234131 
29.97645 6.0151 -16.07 0.8495194 0.25831646 0.4599885 
32.35995 6.6681 -17.19 0.95310074 -0.024376063 -0.30167 
8.839601 3.723 -9.096 0.30518958 0.4216219 -0.8538702 
30.75845 9.1981 -5.994 -0.058540612 -0.47816327 -0.8763178 
15.48319 0.6284 -10.016 0.18818823 0.40810823 0.8933269 
-0.84488 2.6704 -4.814 -0.8929042 -0.15950134 -0.42104787 
13.07455 -1.8324 -7.433 -0.19578376 -0.761465 -0.6179318 
-12.67425 -5.0819 0.189 -0.696777 -0.06748338 0.7141063 
-1.4635 -4.0946 4.655 -0.5890566 0.67738587 -0.44063675 
-17.60945 -2.7512 -3.205 -0.43322432 -0.32502547 -0.8406397 
-4.79685 3.2799 6.318 0.5508141 0.7162322 0.42850354 
14.8066 -1.738 -7.721 0.09907665 -0.78448266 -0.6121853 
-2.05115 -1.3756 7.511 0.3318474 0.0623412 -0.9412709 
27.32435 7.6301 -4.574 -0.4694503 0.49791673 0.72917444 
-4.25905 4.4418 4.178 0.45156932 0.87523186 0.17336191 
25.61695 10.297 -8.723 -0.33593202 -0.73149675 0.59334826 
10.62074 2.511 3.054 0.4423337 0.2140381 -0.87093544 
-22.70565 0.6741 17.244 0.18276742 0.1243765 0.97525716 
-2.73925 3.7439 -2.38 -0.035326775 -0.6412924 0.76648295 
17.31969 -2.6357 -3.192 0.1428875 0.8395758 -0.5241141 
-11.10455 -4.7024 -0.453 -0.48706937 -0.491874 -0.72168094 
-29.31465 4.3977 11.543 0.03782051 0.9990075 0.023528794 
13.75444 -3.2653 -2.639 0.4102591 0.8304677 -0.3768433 
-30.50945 -13.2481 5.368 0.30566028 -0.9386576 -0.15966749 
23.61665 8.7916 -3.993 0.52509737 -0.28422356 -0.80217814 
19.06055 -2.0109 -5.49 0.47803 -0.8782678 -0.01152947 
35.51895 6.3073 -7.256 -0.40629348 -0.05438037 -0.912123 
-13.08135 -7.6086 7.285 -0.13728146 0.9083342 -0.39507315 
5.6685 6.7731 -5.019 -0.7716911 0.63547933 0.025668569 
27.93725 10.7412 -11.768 0.4838704 0.42741004 -0.76366884 
-31.11105 -9.4888 10.472 0.08310068 0.9659045 0.24519947 
3.23122 -3.8496 2.827 0.86383545 -0.50034803 -0.05865287 
28.64795 0.5797 -13.5 0.7267537 -0.2902789 -0.62254894 
10.17573 -3.0871 -0.67 0.20811063 0.8127607 -0.5441599 
1.61844 4.2515 3.839 0.59171736 0.68291575 0.4283651 
8.405505 -2.6041 1.016 0.4193029 -0.737185 0.5298522 
-1.96585 -0.8605 7.556 -0.56901824 0.10795091 -0.8152085 
23.20545 0.0355 -4.481 0.5344198 0.70862985 -0.46069428 
19.09105 -0.8176 -1.523 0.42309645 0.7887982 -0.44585508 
-3.01745 -0.4249 -3.974 0.32097694 -0.06313329 -0.94498044 
2.12462 -1.5346 5.056 0.099748656 -0.5099304 0.8544128 
-24.24965 -4.0919 19.716 -0.3360189 -0.32838756 -0.882753 
3.89044 3.6611 -5.824 -0.5303078 0.42143366 -0.73564076 
11.56425 3.6807 1.984 -0.4141851 0.015270268 0.9100646 
29.16655 0.5153 -13.068 -0.34560177 -0.7662494 -0.54168373 
13.05352 2.2115 1.448 -0.18549925 0.14465787 -0.9719383 
14.45566 5.2562 -10.145 0.5537644 0.33461216 -0.7624826 
2.73036 -4.2827 3.388 0.451077 0.73421144 -0.50740826 
8.660779 -2.8369 0.753 -0.1857278 -0.72256607 0.6658855 
11.36613 -2.3487 -6.233 -0.2225287 0.82718134 0.5159961 
24.41105 5.2524 -2.665 -0.13667446 -0.3094497 -0.9410425 
-9.82205 -0.2604 -1.483 0.34978786 0.28154194 -0.89352256 
-25.46435 -3.6139 -1.222 0.2384221 0.6198501 0.7476234 
-32.92585 0.6975 5.296 -0.40786612 0.6144073 -0.675388 
-26.63975 3.6412 17.346 0.51712203 0.7225799 0.4587626 
25.79835 8.6754 -13.716 -0.23772006 -0.5786561 0.78015786 
-7.06915 0.6915 8.42 -0.3093616 -0.20506813 -0.9285701 
13.04042 8.3414 -2.714 0.2582445 0.9660451 -0.008164553 
-26.33105 -12.3813 3.535 0.196523 -0.8842631 -0.42362425 
9.20877 6.0452 -7.727 0.89075303 -0.38723686 0.23792154 
25.85415 9.6188 -11.306 -0.66107416 0.7490339 0.04392207 
22.19185 2.5807 -13.774 -0.476383 -0.15613388 -0.8652638 
-6.88525 -6.0838 1.48 0.4962996 0.8654433 -0.06851722 
16.55377 7.0572 -11.253 -0.39607278 0.280416 -0.87435305 
4.69329 5.2648 2.013 -0.20847988 -0.9039817 -0.37330055 
-3.66685 5.6505 2.438 0.1411827 -0.9435409 -0.29966316 
35.34405 1.3666 -13.623 0.18245415 0.4449296 0.87678283 
-13.77255 1.108 1.19 0.40113658 -0.62606406 0.6686802 
-21.81145 0.4994 -1.24 0.40214926 -0.6492989 0.6455129 
-28.68945 -1.2265 0.508 0.20912012 -0.7842827 0.5840971 
-6.97645 -0.0019 -3.139 0.19239898 0.04070394 -0.98047227 
35.43865 7.5737 -7.244 0.098672695 0.004660743 -0.995109 
-13.18525 4.0874 6.382 -0.07070015 0.97154576 0.22605386 
-30.56485 -9.8682 3.849 0.098789744 0.469841 0.8772058 
25.05195 1.329 -13.364 0.51393867 -0.2867218 -0.80849093 
29.73965 8.4942 -16.792 -0.5331203 -0.2857522 0.7963218 
11.27186 5.8758 0.104 -0.52116024 -0.6227721 -0.583564 
20.86565 1.4328 -12.507 -0.85426295 -0.4562275 -0.24918132 
-5.92815 -6.6926 3.514 0.37219778 0.8823049 -0.2881091 
-7.63785 -4.7187 -1.405 0.17488965 -0.5319839 -0.82849663 
-13.49905 -12.0653 9.841 -0.2685009 0.7280257 -0.63078195 
0.63539 3.9195 -3.986 0.2873013 -0.63128775 0.7203706 
18.25941 5.1392 -12.968 0.11933117 0.12916505 -0.9844168 
-18.29525 6.0996 9.746 -0.12077486 0.9668914 0.22479863 
20.25145 7.53 -11.036 -0.6659681 0.52485245 -0.53010976 
-0.63873 5.0333 4.041 -0.7030451 -0.6608395 0.26271424 
-25.45965 -5.1549 20.635 -0.49916306 -0.27289546 -0.8224137 
-7.02255 0.7667 8.355 -0.28687862 -0.25546312 -0.92327636 
-1.40765 -2.8572 6.097 -0.59238094 0.46995404 -0.65439135 
16.96791 -1.8105 -8.099 0.43182057 0.88212854 -0.18809643 
22.73095 -0.4231 -4.836 -0.27680004 0.8868649 -0.3699357 
-10.80835 -4.9406 8.984 -0.1674853 0.48134 -0.8603839 
-31.23565 0.8106 3.955 0.07539719 -0.5920569 -0.8023614 
7.499712 6.1424 -5.414 -0.46704817 0.82055384 -0.32948053 
-9.18645 -7.1799 3.866 0.6162475 -0.7642057 -0.19033831 
2.78209 -0.6544 5.67 0.48641878 0.3393648 -0.80512625 
-27.93495 -13.948 12.148 0.11400985 -0.98282754 -0.14509231 
35.83595 11.5747 -12.461 0.13217524 -0.9816958 -0.13712463 
13.79498 6.9787 -8.094 -0.41178912 0.7373611 -0.53547025 
36.79475 1.3993 -10.605 -0.6466362 0.7196456 -0.25292644 
24.80725 -0.0599 -5.024 0.01928307 -0.9698204 0.24305676 
-0.12503 -3.9261 5.492 -0.67577213 0.24953482 -0.6935881 
-24.69145 -7.3042 19.612 0.29811376 -0.57360005 0.7629621 
15.39549 -3.0252 -3.699 -0.46074772 0.84316516 -0.2770994 
20.06675 6.1376 -1.147 -0.34319493 -0.31480858 -0.88493663 
-21.85175 1.8642 15.613 0.2102701 -0.490024 -0.84596866 
0.39739 -5.4256 0.951 -0.20037478 -0.8787895 0.43310395 
11.79677 7.4634 -6.147 -0.51840585 -0.6440511 0.5625421 
28.63245 0.4528 -5.708 0.5888128 0.562607 -0.5803213 
-19.69025 4.4648 1.117 0.40108505 -0.6340793 0.6611159 
33.17145 7.2182 -5.405 0.5898864 0.18286002 -0.7865089 
16.53691 8.5824 -2.826 -0.523318 0.62843287 0.57550883 
-0.4659 5.1834 2.456 0.30170467 -0.87635654 -0.37546432 
-23.63685 -12.7217 7.246 0.22426395 -0.97286063 -0.056989644 
1.54809 -1.8929 6.048 0.89343786 -0.0049126064 0.44915995 
-31.29955 -4.2657 1.484 0.2643144 0.43763912 0.8594242 
15.2901 -2.2596 -1.997 0.55609417 0.70082027 -0.44677764 
33.76605 6.4845 -6.598 -0.48642102 0.28254133 -0.8267799 
-6.88525 3.5094 -1.406 0.6935212 -0.49041075 0.52775526 
21.10815 -1.8261 -6.687 0.5619667 0.75582194 -0.3360455 
-16.67875 -5.8914 -2.39 -0.36190912 -0.32679883 -0.87305456 
21.55025 4.8307 -1.318 -0.42173278 -0.023999562 0.90640247 
-22.83725 -11.5236 14.827 -0.23165514 0.91162086 -0.339534 
0.29031 -3.7289 -3.437 0.66918486 0.6854609 0.28694075 
1.49653 -2.1899 5.492 -0.97514355 0.20206714 -0.09090599 
38.39275 6.604 -7.458 0.8809947 -0.10106477 0.4622059 
4.20755 5.1859 2.568 -0.014521968 -0.945373 -0.32566708 
-9.54865 -4.4791 8.887 -0.6596313 0.5243157 -0.5384975 
-1.97985 3.1875 -3.962 -0.36258718 -0.54179084 0.7582831 
9.58837 3.6348 -9.036 0.6675429 0.10054227 -0.73775184 
25.43945 4.1953 -2.195 0.61281276 0.32965723 -0.7181829 
19.76725 -2.0624 -5.465 0.6616159 0.6751497 -0.32624736 
1.8517 2.6673 -6.14 -0.67006963 0.0011218932 -0.74229735 
4.92348 -0.9592 -6.835 0.48306853 0.00079112186 -0.8755822 
20.96145 5.4391 -1.621 0.47254902 -0.045119904 -0.88014865 
-7.99915 4.3339 0.741 0.28036657 0.8740777 -0.39671502 
6.52323 -4.0108 -0.958 0.051580135 0.9907472 -0.12553652 
6.95632 -3.3372 -3.974 -0.052619398 -0.9102793 -0.4106371 
22.55745 8.5316 -5.118 -0.76070744 0.24202292 0.6022865 
25.57615 -1.1285 -6.347 -0.82204336 0.5632225 -0.083815515 
-1.97105 -5.3892 1.706 -0.22268187 0.95423746 -0.19960877 
20.62425 -0.2865 -2.43 -0.2242117 -0.64717627 0.7286234 
-1.89975 -4.7713 4.565 -0.91789436 0.3967626 -0.0070237876 
29.86295 0.6725 -12.759 0.41095707 -0.14223051 0.9004914 
-17.90495 -7.0311 -1.511 -0.15672083 -0.34456164 -0.92558944 
4.94313 -4.7723 -1.249 0.6260852 0.76396537 -0.15612246 
-3.26025 -5.298 2.903 -0.18464908 0.960495 -0.20821656 
15.20778 7.8764 -7.346 0.28482592 0.8966263 -0.33902133 
-31.96975 4.0608 6.991 -0.19252737 0.94299346 -0.27147108 
-19.65995 -12.1084 6.989 -0.09471989 0.975051 0.20075786 
24.90895 -1.1879 -6.842 0.5732621 0.70511454 -0.41735357 
30.87165 9.831 -15.134 0.33243865 0.57881534 -0.7446189 
-10.23315 -2.0258 -1.253 -0.92599833 -0.05746504 -0.37312844 
-27.05605 -8.8842 1.789 0.48768723 0.8198552 0.29999757 
-17.75135 3.5914 15.592 -0.28490147 -0.7571669 -0.5878175 
26.15265 -0.083 -5.791 -0.62517285 0.70808214 -0.32829642 
-31.33995 1.1508 4.377 0.5839838 0.59688294 -0.5501761 
6.56702 -2.5002 3.535 -0.5522491 0.4427263 -0.7064095 
-38.66105 -4.8907 12.369 0.9285508 -0.06322819 -0.36578083 
22.38575 9.5458 -6.606 -0.5102658 0.7299515 0.45475224 
-7.25675 0.4395 -3.162 0.87178147 0.40564343 0.27468243 
8.396796 -1.0178 2.642 0.7146852 -0.22035988 0.6638272 
-3.54185 4.7029 -1.742 -0.97494674 0.20876835 0.07677621 
-1.97475 4.7049 -2.365 0.9032366 -0.42043713 -0.08600113 
-3.45855 -1.2525 8.169 -0.5980581 -0.13139307 -0.7906088 
10.58598 2.9877 -9.622 -0.8562866 0.11423609 -0.5037096 
6.79692 -0.8911 -7.156 -0.31342334 0.6397327 0.701789 
-17.06575 -11.802 6.154 -0.09077555 0.9705511 0.22313757 
38.42665 1.6681 -9.507 -0.39005384 -0.73538095 0.5541416 
-11.06525 -5.1518 -0.351 0.74595994 0.50891536 0.42959157 
18.89725 7.8757 -2.068 0.1497431 -0.33671322 -0.92962426 
6.36631 6.8896 -0.76 -0.10062057 -0.7680284 0.6324618 
2.68069 5.8548 0.974 -0.41873726 0.8342556 0.3587154 
6.0119 1.2915 4.2 -0.89439726 0.037415452 -0.44570574 
30.81825 11.131 -9.583 -0.5327213 -0.8361329 -0.13072821 
31.80715 0.633 -9.705 -0.75256896 0.65747046 -0.037048064 
-6.28065 4.9452 4.634 0.19586177 0.98062915 -0.0021543703 
19.87685 1.8562 -12.09 0.18472894 -0.3975527 -0.898792 
-20.67825 4.5128 1.997 0.42183578 -0.6410347 0.64119345 
-22.55845 -9.4316 16.76 0.30143264 -0.43184158 0.85008895 
-22.15635 6.3123 7.379 0.04540799 -0.9721005 -0.23012775 
25.77975 5.8992 -3.199 -0.47623262 -0.17623557 -0.86147755 
-26.43055 1.736 3.594 -0.6016816 0.32960737 -0.72755635 
-41.26685 -6.222 11.901 -0.9792034 -0.09198521 0.1808299 
-27.00535 2.0642 2.875 -0.036531363 -0.6622751 0.7483697 
34.46965 10.9066 -15.867 0.30308947 -0.7331804 0.6087555 
-28.92085 -9.061 14.874 0.33541232 0.67859405 -0.653459 
-5.10045 -5.8705 5.41 -0.9064605 0.41978595 -0.04592443 
-24.94295 -7.3461 0.52 0.10784767 0.42535704 0.8985768 
-19.23905 3.2521 3.21 0.4895196 0.23337696 0.84018195 
8.354115 -3.1721 -5.604 0.3451955 -0.19556145 0.9179302 
-28.60525 -14.067 16.356 0.20699196 -0.6495952 0.73156023 
22.44325 1.3542 -2.501 0.44944945 0.5080277 0.73478097 
-7.23355 3.7253 0.557 0.14439905 -0.794933 0.5892626 
18.15462 3.6982 -0.52 0.2828728 0.16567716 -0.9447402 
30.89125 10.6293 -12.016 -0.6724119 0.73676175 -0.071023464 
16.30183 4.771 -10.939 -0.047043998 0.10220817 -0.99365 
-12.37095 4.458 13.96 0.8116081 0.07297597 -0.5796265 
-26.40905 2.0182 3.419 -0.7869534 -0.4940955 -0.3695592 
38.47835 5.308 -7.102 0.16691118 -0.066801906 -0.98370636 
-14.81975 -0.9456 -0.005 -0.60011536 -0.073234744 0.79655397 
19.40515 0.1149 -2.209 -0.43326324 0.47377706 -0.76669306 
20.77335 -1.4542 -3.467 -0.3214657 0.6212131 -0.71467066 
22.94885 8.0766 -13.484 -0.7932156 0.56386036 -0.229936 
-4.97825 4.2048 4.851 0.43137062 -0.69222605 -0.5785693 
6.40747 -4.5005 -2.348 0.7094508 0.6175947 -0.3394943 
-14.74385 -2.9549 16.557 0.3059436 0.17743471 0.93536913 
0.09396 5.7714 -2.548 0.21645494 0.8189325 -0.53150433 
5.05213 2.7882 -7.775 -0.717899 0.13982059 -0.68196124 
4.26154 6.2177 -2.841 -0.3870954 -0.8072227 0.44558796 
-2.17805 -3.2669 6.358 -0.5300281 -0.52993333 0.6619976 
14.47113 -1.632 -7.827 0.26360297 -0.7608321 -0.59299916 
-6.07355 3.3919 6.187 -0.37260446 0.41633248 0.8293571 
-0.88766 4.0529 -4.299 -0.5551628 -0.30499777 0.7738027 
20.24975 9.3585 -6.778 -0.63021 0.6475637 0.42836502 
-38.81355 -6.3007 13.753 0.75160396 0.6488841 -0.1184942 
-32.74775 -6.4132 6.464 0.9940746 -0.08589448 -0.06661768 
-4.55175 -5.5973 3.836 0.43909174 0.8643094 -0.24529117 
16.19374 8.6888 -6.357 0.701288 -0.6539117 0.28389198 
1.04034 4.8094 -3.112 -0.5717108 0.7353748 -0.36382768 
-11.19895 2.799 7.788 0.42928195 -0.6918678 -0.5805479 
18.48385 6.2919 -1.923 0.20781292 -0.7153623 -0.6671361 
-40.77285 -8.2247 11.452 -0.8902763 -0.183857 0.41665897 
30.41425 9.8896 -8.232 -0.23426974 0.8523194 0.46762088 
1.57726 1.8254 -6.116 0.17251433 0.4884376 -0.85537565 
-25.25305 -12.8034 6.209 -0.08928067 0.97175795 0.21843874 
18.95545 8.928 -10.296 0.5550764 0.587879 -0.58846277 
-33.31885 -8.2046 10.44 -0.6884442 0.603023 0.4029986 
-23.73445 4.7572 13.388 -0.18752731 -0.94945985 -0.25171304 
3.2859 0.5091 5.631 0.56161517 0.816759 0.13226166 
-11.14315 -5.5729 8.65 -0.34515455 0.83755636 -0.42351818 
20.71645 2.2502 -0.877 0.24984609 0.4771247 -0.8425728 
-9.87265 -2.0596 -2.328 -0.16977008 -0.32541305 -0.93020666 
39.55575 0.4209 -9.787 0.76879627 0.42121032 -0.48117995 
-26.64875 -11.2817 17.185 0.26293582 -0.4391347 0.85908407 
-6.26295 -0.1654 8.445 -0.3254769 0.018630823 0.94536644 
-3.46285 3.9821 -2.443 -0.47667623 -0.7749942 0.4149262 
-19.93365 -7.2425 17.064 0.80078715 -0.4195195 0.42748484 
11.71321 -0.5476 1.061 -0.45920902 0.3263 -0.82622963 
38.02685 8.866 -10.309 0.848933 0.05106682 -0.52602756 
-4.38365 -5.4695 -0.235 -0.07887454 -0.9968391 0.009520065 
12.90531 8.0223 -5.266 0.092253044 0.93822366 0.3335053 
-14.07845 -6.297 15.991 0.4314827 -0.72550416 0.5361589 
-12.84795 -5.0666 -0.052 -0.28665605 0.42093033 0.8606079 
-14.58355 -9.3345 12.655 0.23901042 -0.6640209 0.7084845 
31.66135 0.3634 -12.844 0.46169484 0.11228054 0.8799039 
-13.46305 -2.8046 -0.32 -0.90710956 -0.25224233 -0.33693635 
-16.25085 -7.01 15.767 0.42273283 -0.62124354 0.65981317 
8.640581 1.2062 -8.118 0.27540812 0.09635714 0.9564861 
27.75025 -0.8728 -8.892 0.4407464 0.824128 -0.35574672 
6.20735 0.6605 3.702 -0.2593495 -0.017735614 -0.9656207 
-32.47115 -9.2711 7.129 -0.9516481 0.02233133 0.3063776 
8.895202 -3.2178 -4.472 0.4411968 0.8804859 0.17346464 
-2.79365 -0.9989 7.136 0.15737763 0.18941054 -0.96920377 
16.5984 -2.2741 -3.823 0.38657713 0.86638796 -0.31611708 
33.50715 10.7152 -16.518 0.6078095 0.35348302 -0.7110678 
-7.05105 4.7186 1.93 0.6862757 0.6318896 -0.360196 
22.10245 8.4859 -10.883 0.62386614 -0.7343977 0.26730335 
11.15863 7.6054 -1.868 0.7714571 -0.4021596 -0.49307367 
14.8755 8.2308 -6.41 -0.80487406 0.5865616 0.09012857 
-1.77245 5.3709 -1.83 -0.69910574 0.71493745 -0.010751518 
37.21245 4.018 -7.913 0.95902586 -0.22113691 -0.1771098 
11.93436 1.3354 2.034 0.3717413 0.06522504 -0.9260422 
35.17795 1.3894 -8.052 0.6747416 0.46620095 -0.5721716 
-3.27165 -2.0585 7.426 0.83349836 -0.2017707 0.5143628 
13.99593 2.0311 1.618 0.48535782 -0.03127866 -0.87375593 
-5.62665 -4.5036 7.148 0.47819453 0.5178438 -0.70934325 
31.04065 10.6577 -9.084 0.44464642 0.8923402 -0.077579424 
0.15524 5.8148 -1.279 0.8437203 -0.42163217 -0.33220834 
22.67905 -1.3177 -9.217 0.36960652 -0.908606 0.1944896 
0.75948 6.5121 0.085 -0.7768403 0.48956308 0.39603928 
-3.19965 2.445 -3.279 0.34243107 0.36340776 -0.86641544 
29.98845 7.0048 -5.265 0.66127634 0.74784154 0.058707744 
-17.40215 -10.9752 13.593 -0.86629766 0.46105692 -0.1922365 
19.68495 6.3744 -11.864 0.17348742 -0.39371455 0.9027131 
-19.43465 -6.6866 -0.994 0.32711235 0.27756807 0.9033014 
-7.95645 -4.8263 0.014 -0.407668 -0.66284573 -0.62804645 
27.97635 0.7198 -6.387 0.08666883 0.8703586 -0.48473126 
9.679 -2.973 -0.126 -0.48606658 0.6887882 -0.5378756 
37.19015 2.9326 -8.095 0.9853892 -0.12737823 0.11306166 
0.23816 -5.4089 0.229 0.46541345 -0.28170303 0.83906716 
16.35133 8.5301 -5.237 -0.01557715 0.9979265 0.06245097 
24.41555 9.8892 -6.354 0.7864449 -0.38759798 -0.4809077 
-23.13185 4.615 4.093 0.0068059303 -0.38495085 -0.922912 
19.93075 -0.4654 -11.423 0.73061484 -0.07470798 -0.67869043 
15.40431 8.0032 -3.585 -0.17180955 0.94668734 0.2725152 
31.72655 8.5666 -17.221 -0.3017044 -0.594513 0.745338 
13.97184 -0.5436 0.97 -0.49774268 -0.5180491 0.6956129 
31.98535 8.4671 -17.255 -0.28491732 0.2965404 -0.9115294 
-25.57355 -2.3394 -0.839 0.7218321 -0.3427344 -0.6012417 
-3.06465 -3.7272 6.008 -0.4742331 0.57770014 -0.6643535 
36.20005 1.2413 -10.195 -0.061066095 0.9808902 -0.18473051 
-33.25135 -8.3232 15.186 -0.4497882 0.88985217 -0.07650942 
-5.56455 2.3051 -3.572 0.17240645 0.41721284 -0.8923057 
-14.95675 -6.9499 15.037 0.40020338 -0.7068921 0.58321595 
-18.62675 -12.4963 8.825 0.054543275 -0.97675556 -0.20730083 
-2.06985 -5.6605 3.501 0.94046986 -0.30516148 0.14964245 
17.84676 7.853 -3.432 -0.45124125 0.73475784 0.5064703 
14.93993 2.6707 0.815 0.16763125 -0.10999806 -0.97969395 
34.63235 12.0826 -13.094 -0.02903342 0.9992834 0.024285508 
23.05205 -0.8014 -10.124 0.32323384 0.7229755 0.61059505 
-29.37035 -1.8331 0.379 -0.64352334 0.13961262 -0.75258625 
20.75835 -1.4895 -6.823 0.17553249 0.98261166 0.060519904 
17.91687 -2.0966 -4.554 -0.27885705 -0.81964016 0.50042856 
0.6854 0.195 -5.235 0.27131134 0.1407283 0.95214796 
5.10787 4.6255 -6.478 -0.7945301 0.50568616 -0.33615986 
-11.66705 -5.1486 1.052 -0.38094878 -0.6778736 -0.6287809 
-11.89555 -7.3345 13.634 0.3459926 -0.77874285 0.52330554 
27.59935 1.6092 -14.947 0.9625006 -0.19523957 -0.18834569 
21.11985 2.5328 -12.985 0.67742175 -0.07418363 -0.7318446 
31.60535 7.3055 -4.369 -0.05162022 0.1762457 -0.98299176 
-30.35185 -7.7774 15.969 -0.08102939 -0.5383226 0.83883435 
-14.53735 3.0557 2.747 0.15201443 -0.91482157 0.37415648 
-33.94945 2.9387 11.106 -0.92624307 -0.2121494 0.31155476 
25.71985 1.4284 -4.515 -0.5904007 0.44290012 -0.67473435 
8.410715 -3.6331 -0.961 0.36099654 0.8349604 -0.41535836 
27.93295 6.107 -15.29 0.5513488 0.07338647 0.83104086 
-0.72305 -4.1937 5.962 0.52700126 -0.048858058 0.84845895 
-24.82415 -14.0844 11.886 -0.3009946 0.9201775 0.25035104 
35.34745 5.1826 -6.336 -0.62714225 -0.20280625 -0.7520387 
-12.12975 3.2485 2.608 0.5628352 0.7990619 -0.21146305 
-27.86205 -6.0304 1.192 0.2352957 0.28795612 0.92828727 
5.76648 5.1621 -5.547 0.6564487 -0.52988213 0.53693575 
9.187422 -2.6651 0.51 0.42798373 -0.6751588 0.6008249 
33.10635 0.308 -12.591 0.5429306 -0.08574104 0.835389 
33.15705 7.3442 -5.015 0.8515101 0.0030881509 -0.5243291 
-8.65835 3.449 6.593 0.47420296 0.86612356 0.15799238 
25.74715 10.0044 -9.358 0.32143965 0.91213095 -0.25434947 
-37.60485 -1.9306 13.204 0.4491015 -0.88010955 0.15399674 
9.57296 7.9934 -4.951 0.020694774 -0.95589644 0.29297388 
11.2637 7.2339 -1.381 -0.65847737 0.56881225 0.49280852 
-27.30065 -13.9464 9.951 0.0806642 0.9526468 0.2931848 
7.557968 5.7087 -6.06 0.7843897 -0.5043595 0.36104622 
17.46801 2.399 -11.361 -0.49142238 -0.13068756 -0.86106026 
15.99693 5.0383 -0.003 0.3224039 -0.427927 -0.84435433 
-3.15755 -5.5559 1.989 0.632297 0.75553757 -0.17135794 
-23.19335 1.8264 16.867 -0.2866418 -0.41841838 -0.86183673 
-3.86835 4.663 3.214 0.036681604 -0.9228006 -0.38352773 
-32.63585 -7.2081 8.232 0.03586413 0.63927436 0.768142 
-3.99445 0.0663 -4.113 0.91326404 0.012836117 0.40716583 
7.996791 -0.0768 -7.807 -0.4322031 -0.803364 -0.40964225 
-2.23865 -5.5929 1.859 -0.61060244 0.78435415 0.10933064 
-26.21525 5.5774 10.15 -0.040840857 -0.9753225 -0.21697481 
24.13065 -1.1954 -10.757 -0.6021838 0.6125532 0.5120091 
-36.53525 -1.7708 15.552 0.19729635 -0.89662683 -0.3964019 
-0.76321 -4.6325 -0.907 0.1440776 0.9299409 0.338307 
26.78355 1.0624 -3.255 0.13740756 -0.95589614 0.25958002 
10.59827 7.3683 -2.805 -0.4606837 0.8073333 0.3687593 
16.04088 7.1258 -9.834 -0.4006255 -0.62909526 0.66613686 
-10.43785 2.0808 -0.625 -0.9080329 0.37673858 -0.18315095 
33.98145 4.742 -6.514 0.7369993 -0.1133576 0.66631985 
38.56235 7.551 -9.59 0.9711077 0.062008187 -0.23044467 
29.64435 4.7 -15.793 -0.1503676 -0.060459778 -0.9867797 
28.87895 -0.2203 -8.075 -0.08760329 0.14689396 -0.9852654 
0.61036 4.0355 -4.835 0.49378762 -0.16408433 0.8539614 
2.4314 -4.3895 -1.549 -0.038915023 0.9887976 0.14410017 
24.59635 6.0072 -14.258 0.45891705 0.21777532 0.8613762 
-9.35175 -6.7503 5.277 -0.7015503 -0.5965892 0.38975433 
26.90515 7.6016 -15.392 -0.06597191 0.6314515 -0.77260387 
28.30615 1.2937 -4.97 -0.4238462 -0.022383707 0.90545756 
23.61755 0.2566 -3.487 0.73171973 0.3751037 -0.5691076 
-38.92525 -7.0454 16.623 0.64703465 0.680075 -0.3447379 
30.30715 8.833 -16.164 -0.341473 0.6958818 -0.631779 
-2.28255 -5.3211 -0.898 0.7856162 0.6186821 -0.00629768 
-26.82935 0.1378 2.379 0.12742515 -0.5747295 0.8083618 
20.24685 -1.2096 -9.782 0.7927096 0.6089637 0.027832897 
-14.34105 3.359 7.558 0.6342813 0.77309734 -0.0027801383 
-8.58275 -6.4002 3.698 -0.40324444 0.8915091 0.20641077 
22.80645 9.6984 -9.567 -0.7956469 0.5623422 0.22520491 
-6.92785 -5.1505 7.534 -0.16274752 -0.68649936 0.70868325 
-5.80845 2.4402 -1.786 -0.33012107 0.42301702 -0.8438463 
7.797306 -3.6777 -5.056 0.5400391 -0.6182922 -0.5710276 
-8.44525 1.4372 8.602 -0.41725403 0.30877733 0.8547255 
-23.75335 -2.5415 18.939 0.26850167 0.3293316 0.90523344 
24.92415 7.5689 -13.665 -0.88123256 0.41164622 -0.23232862 
19.03615 -1.573 -9.485 -0.7290208 0.5840249 0.35699245 
-14.46485 -3.6885 0.16 0.67666245 -0.011163411 -0.73620874 
-2.76225 -5.0793 4.532 -0.3081395 -0.79072094 0.5289711 
-1.5644 -2.2256 -4.151 0.020232467 -0.98092836 0.19331378 
-13.59935 -12.0208 6.737 -0.17365213 0.93499464 0.30924088 
16.67367 3.1349 -10.819 0.35999754 -0.37147006 0.8558106 
4.07231 5.8842 2.593 0.31786007 0.76086885 0.56572396 
10.83367 0.2156 -8.504 -0.52502435 -0.47951066 -0.7031493 
-32.52395 -8.2914 7.21 -0.90052795 -0.40872332 0.14830612 
-10.92085 1.1761 -0.886 0.43382946 0.8987791 -0.06315164 
-20.28065 5.9979 2.832 0.41583756 -0.3245907 0.84954107 
12.81113 6.977 -1.652 0.3692623 -0.7680029 -0.52327514 
16.23232 0.1641 -0.676 -0.6615486 0.3192477 -0.67855316 
12.61268 4.9988 0.779 -0.45263076 0.55207103 0.7002449 
26.63785 9.3601 -12.302 0.2638296 0.9111517 -0.3165383 
6.37486 -3.3661 -4.205 0.7247736 -0.5875121 -0.3599067 
-28.07755 -9.6954 2.919 -0.2900782 -0.36638635 -0.8840903 
22.26965 0.9238 -11.907 0.093950264 0.5781853 0.8104783 
-5.02855 3.2433 -2.345 0.34495127 0.6060202 -0.71676224 
30.98715 8.1066 -15.771 0.12946713 0.4946654 -0.859386 
27.92195 2.9586 -4.026 -0.006991063 -0.8193135 -0.5733031 
18.31364 0.3231 -10.892 0.31141898 -0.8497248 -0.4254245 
34.64165 8.1763 -18.283 -0.9406199 0.2699018 -0.2058816 
14.57964 -1.9799 -2.162 -0.34261045 0.8909198 -0.29812744 
17.15857 8.4547 -4.641 0.4982308 -0.8032013 -0.32654822 
8.600953 5.17 1.492 -0.1480644 -0.60964996 -0.77871937 
20.69895 9.5059 -9.047 0.07656306 -0.59757555 -0.7981488 
-14.65195 -0.8078 0.129 0.52120656 0.18260002 -0.83366716 
18.77845 3.9628 -0.415 -0.37636855 -0.70434177 -0.60187155 
30.88785 3.4559 -16.629 -0.4334245 0.11983327 0.8931871 
17.94146 3.7808 -11.422 0.11028102 0.18277314 -0.9769504 
-5.65695 -6.1672 2.888 -0.8008249 0.5865512 0.12098416 
-14.38655 -1.0838 0.408 0.17661817 0.16116405 -0.9709955 
12.53403 -2.8032 -2.967 -0.28483662 0.93802685 -0.19741762 
-5.95645 4.3493 4.519 0.39119044 0.9194894 0.038849864 
-6.96345 -0.1193 8.795 0.85272056 0.26930723 0.447595 
18.29541 -0.906 -2.53 -0.15527377 -0.8204035 0.5502982 
-0.18651 -1.9619 6.97 0.27330154 0.30571374 -0.91205555 
-14.21485 -0.788 0.27 0.07415133 -0.14995007 0.985909 
-32.41645 2.628 6.093 -0.957208 0.18281002 -0.22435103 
14.36244 2.2497 0.752 -0.56948406 0.057120074 -0.8200154 
-29.73105 4.0953 5.804 -0.5073383 -0.18285002 -0.8421245 
8.184018 0.5457 -8.083 0.73783165 -0.0016756743 -0.67498267 
-1.01207 -4.9154 3.811 -0.5354375 -0.57375515 0.6197674 
-8.47545 -0.9812 9.677 0.9200081 0.2826592 0.2714569 
-0.04546 -2.4268 6.288 -0.93615717 -0.10957192 -0.33407146 
2.51972 -2.173 -4.696 0.061406728 -0.58066183 -0.81182575 
-19.55205 -2.2033 -2.744 0.28253877 0.40167558 0.8711077 
-1.65247 -2.3996 7.344 -0.85279137 0.41162312 -0.32142392 
-17.29165 -9.0739 14.366 -0.33767918 0.6325024 -0.69707495 
-21.28915 6.4842 3.13 -0.2667316 -0.5758937 -0.77278763 
-23.56345 -9.7052 17.532 0.5145973 -0.61631846 0.596105 
-2.04435 0.2516 7.391 -0.9429257 -0.2404517 -0.23037814 
21.43265 9.0819 -6.821 0.057901822 0.9349756 0.34995416 
-24.81425 -7.2533 0.951 -0.5382397 -0.7339686 -0.4142319 
-7.52675 2.0641 7.64 0.44626597 0.562156 0.69629544 
-39.51535 -4.8646 14.326 -0.96971774 0.0405588 0.24083711 
-20.27565 2.6405 -0.072 -0.32430193 0.67483777 -0.6628893 
-13.84215 3.9362 4.232 0.169633 0.9465755 -0.27426156 
4.55005 5.2697 3.268 -0.30628115 -0.7307559 -0.61007184 
-38.08895 -4.5908 16.634 0.8393493 0.018694414 -0.5432708 
15.54356 7.8461 -1.463 0.27697745 0.869545 0.40887043 
27.23195 10.1793 -11.45 -0.024588535 0.599495 0.8000007 
-6.73865 4.4192 -0.444 -0.43751252 0.8619115 -0.25630334 
25.18815 -0.2968 -4.982 -0.49270424 -0.6463214 0.5826758 
2.78762 0.7089 -6.783 -0.23386294 -0.14090362 -0.9620054 
-25.36305 5.3555 9.35 0.14490035 -0.719267 0.6794548 
-20.88475 -9.7873 0.714 0.27751416 0.35938966 0.89096856 
-1.55147 -5.6878 1.244 -0.7178151 -0.6962322 0.0014950783 
15.32121 3.9202 -11.078 -0.9933185 0.09400473 -0.06694379 
33.50685 11.8083 -14.46 -0.5837504 0.80167055 0.1286846 
-33.98905 -11.8987 7.355 -0.9011028 -0.39464182 0.17964284 
-19.07515 -3.8687 -2.136 -0.28917682 -0.45978805 -0.83962595 
12.08085 -2.2178 -5.905 -0.49940133 0.551037 0.66854805 
-25.74545 -0.2581 18.627 0.3440286 0.33197415 0.87831515 
-29.14135 -1.6398 1.38 0.38713104 -0.59195596 0.70690715 
6.74745 -0.7421 -7.244 -0.36918607 0.40823445 0.834893 
33.92505 8.6882 -6.145 -0.16742782 -0.06137288 0.9839722 
-2.30955 3.4791 -3.222 -0.96149355 0.26892963 0.056630176 
13.78575 6.1623 -8.789 0.8263825 -0.32875818 0.4571761 
-6.73105 -6.1716 6.69 -0.8893144 0.26654038 -0.37158585 
-26.22295 -4.588 0.756 0.96592045 0.25857338 -0.011724126 
16.96258 2.724 0.654 -0.60956174 -0.051666215 0.7910531 
12.28227 -3.6527 -2.301 -0.43804902 0.8530805 -0.28349024 
-35.59105 1.8216 9.843 -0.2567194 0.9569471 0.13545276 
-0.19959 2.4164 5.761 0.41387978 -0.21901757 -0.883592 
27.34365 -0.9874 -11.124 0.58619 0.77636653 0.23159513 
-0.44496 -5.2473 3.299 0.5935294 -0.78031117 0.19707188 
17.27597 8.1409 -4.115 0.3569559 -0.67245674 -0.6483706 
6.90805 6.6701 0.95 -0.46918672 0.72401404 0.50563574 
7.3903 -0.0875 3.743 0.5431391 0.24330854 -0.80361736 
33.17515 0.9844 -15.232 -0.77266943 -0.63143975 0.06531274 
-17.47575 -12.0755 7.191 0.09473531 -0.9679763 -0.23248044 
0.92407 5.1348 2.41 -0.06909356 -0.97949773 -0.18923591 
1.81578 2.7127 -5.436 -0.20213069 -0.3757125 0.9044243 
-21.23005 -7.7401 0.021 -0.21376705 -0.35195684 -0.9112793 
21.12955 1.0481 -12.783 -0.22457273 0.509677 0.8305399 
-14.45205 0.3811 0.681 0.11381564 0.54525757 -0.830506 
12.34171 6.088 0.282 0.56776613 -0.062844984 -0.8207875 
30.61385 1.0865 -15.436 -0.4536677 -0.7758811 0.43839955 
34.20675 6.3963 -18.024 -0.24534892 0.52154905 0.8171845 
14.44277 7.8658 -6.084 0.23757792 -0.9533276 0.18634187 
-0.11137 -2.0154 6.842 -0.067500815 0.3783214 -0.9232099 
4.4785 5.7611 1.197 0.037730496 -0.9267295 -0.37382993 
27.54205 4.8004 -4.271 -0.11876745 -0.024449086 -0.99262106 
-11.51335 -5.7217 15.051 -0.47281137 0.4139559 -0.77787524 
-29.40345 -10.6644 3.901 -0.3355621 -0.42434773 -0.8410274 
8.347727 6.9674 -5.327 -0.27044976 -0.824848 0.49647024 
-9.52215 4.048 3.85 -0.021019464 0.9955302 -0.092074856 
22.23945 3.5355 -13.914 0.49390176 0.19110186 -0.8482577 
-17.15425 -7.4892 -1.414 0.43913716 0.22286779 0.87033814 
-1.76395 -4.6167 4.916 0.9731563 -0.20724122 0.10008942 
24.99835 0.0312 -12.791 0.11026442 -0.53027797 -0.84062296 
15.71025 1.0172 -10.426 0.5259504 0.49301317 0.69304705 
33.67555 0.8807 -13.194 0.24496737 0.9346709 0.2576455 
-11.19795 -0.1959 10.182 0.28320333 -0.16028494 -0.94557106 
-27.72005 -7.5191 1.458 0.4871009 0.5112091 0.70809466 
-6.56495 0.147 8.393 -0.15583184 -0.2543618 -0.9544718 
16.55077 8.6658 -3.33 0.5318248 0.84537005 0.050117817 
13.07617 -2.145 -0.499 0.9535629 -0.30016726 0.024847858 
-30.33525 2.7313 4.295 -0.30151674 0.6734176 -0.6749788 
-32.36705 -2.4769 1.259 0.46258688 -0.33942932 0.8190245 
16.85079 -1.4856 -8.639 0.6198133 0.7838185 0.038209524 
23.90985 8.7442 -13.091 0.19335061 0.6207546 -0.759789 
28.88735 6.0769 -15.966 0.83583057 0.2608784 -0.48304215 
6.60879 4.0251 -6.971 0.38885915 0.41296434 -0.82355875 
-10.69275 1.9191 8.451 0.08011036 -0.52496654 -0.8473444 
-6.43385 -5.2786 6.269 -0.65621173 0.68445575 -0.3176578 
1.95851 2.4351 -5.452 -0.14689428 0.30157104 -0.94206 
8.316028 -3.0465 0.481 0.22715424 -0.94692457 0.2274529 
-27.66375 4.7352 10.302 -0.13316569 0.985774 0.10254998 
-3.94305 -5.4735 0.863 0.37480077 0.9270273 -0.012035391 
11.33332 7.0615 -1.272 0.57930624 -0.5793909 -0.5733327 
22.06045 8.4189 -10.802 0.4568578 -0.81387085 0.35901973 
-5.44165 -2.7108 -2.576 -0.49965832 -0.40071648 -0.76796347 
12.2537 3.1709 -10.523 0.8082155 0.024983453 -0.5883567 
-0.78393 -3.4643 5.463 0.5236564 0.40332174 -0.75041026 
-2.00955 -5.3959 1.508 0.1658266 -0.9861454 -0.004343577 
12.30441 6.625 0.129 -0.55032027 0.48984256 0.676167 
-26.36535 2.4059 4.108 0.7905724 -0.53818405 0.29215276 
16.62953 -2.5858 -4.221 -0.67397135 -0.65538144 0.34093657 
16.8416 6.291 -10.563 -0.7574272 0.51691955 -0.39887118 
-7.26345 1.4882 -3.217 -0.44857594 0.3861735 -0.80600846 
22.19715 -1.4326 -8.189 0.1820297 0.9815647 -0.05827435 
4.86577 4.5154 3.032 -0.7640495 -0.6340895 -0.11899118 
-22.57455 6.6505 6.582 -0.005030895 -0.94856244 -0.31655017 
-14.92965 3.5954 5.891 0.5924703 0.74463826 -0.3073969 
23.90905 2.6399 -13.882 -0.87430173 -0.46721378 -0.13155885 
26.65555 -1.0039 -9.311 0.74857366 -0.5164673 -0.41581133 
35.35835 10.9342 -10.589 0.028677605 0.6951153 0.71832603 
16.68616 4.7279 0.391 0.37509757 -0.16255398 -0.9126215 
18.26939 1.3243 -11.35 -0.30359417 0.5428647 0.7830252 
-17.13695 -5.8289 17.341 0.30841553 -0.6791716 0.6660374 
-27.66315 4.256 4.841 -0.5622265 0.58022606 -0.58926994 
32.29215 0.2581 -11.462 -0.79189956 -0.5908103 0.15439637 
5.48062 5.2926 2.224 -0.40904394 0.43540323 0.8019396 
4.51579 -4.3275 2.31 -0.30615765 0.8673831 -0.3923188 
-5.02925 -3.15 8.351 0.081459664 0.60134304 -0.7948276 
-9.50675 2.3149 8.32 -0.74790186 -0.64132935 -0.17128782 
17.83009 -2.1454 -6.516 -0.014993982 -0.99988484 0.0023358183 
-6.05565 -3.6517 -2.394 0.12192386 -0.61484766 -0.77916425 
-18.64995 -8.8724 -0.535 0.26665264 0.40881598 0.872792 
5.40942 -3.3825 -5.223 0.65864795 0.59045684 0.46641567 
15.05557 8.6581 -6.982 -0.3534117 -0.7679437 0.5341935 
7.01082 6.3895 -0.403 -0.2557997 -0.9346197 -0.24708793 
-34.59705 -0.6035 3.729 -0.4878275 0.47910678 -0.72971296 
19.37605 -1.9958 -6.783 -0.9072631 -0.29056287 0.30405074 
9.53329 3.1895 -8.735 0.7805839 0.1254337 -0.6123358 
-2.78705 3.988 -3.292 0.23975535 -0.9705115 -0.024997002 
27.01165 7.058 -3.923 0.3993766 0.12735587 0.907898 
22.39695 9.4704 -9.088 -0.20642067 0.96400553 -0.16758227 
-36.30735 -10.1457 12.056 0.0071548955 0.94516426 0.3265169 
-5.59125 0.546 8.943 -0.49344027 -0.30071825 -0.8161404 
32.12825 3.9155 -6.004 0.8244661 -0.034805488 0.56484 
6.15909 2.7289 3.76 0.30256462 0.4685233 0.8300244 
13.46388 7.9532 -1.508 -0.700426 0.5088906 0.50043356 
-20.50405 -3.8861 -2.492 0.29940003 0.6513523 0.69720864 
33.70475 10.9715 -13.118 0.05729847 0.90771616 -0.415654 
-25.98925 4.9867 12.619 0.36806786 -0.86058724 0.3520166 
12.89771 1.0458 -9.653 0.4871184 -0.5401263 0.68627924 
35.57845 1.2235 -10.187 0.5449479 0.83815414 -0.023009866 
-6.79355 -4.1089 -1.205 0.20945285 0.5162271 0.8304451 
33.12895 -0.1033 -9.936 -0.70918894 -0.56655353 0.4196048 
-37.01965 -1.9551 15.48 0.413185 -0.72515005 -0.55084985 
-4.87085 -4.2978 7.453 0.9009279 -0.31753692 0.29580262 
-4.56265 3.017 6.151 0.2864791 0.60112655 0.7460406 
-0.21759 -5.0316 1.543 -0.20186947 0.97325116 -0.10968524 
-13.60455 -2.0002 -0.223 0.95386606 0.047306776 0.296482 
0.77188 1.8701 6.391 -0.5244225 -0.31926975 -0.78933376 
7.10358 -1.4072 2.896 -0.19193393 0.5970103 -0.7789352 
-33.30545 -10.0344 4.574 0.8580146 -0.3908836 -0.33319813 
22.90005 3.2227 -1.891 0.41792095 -0.54544353 0.72652143 
-7.53715 -6.9979 3.483 -0.11561051 0.99073786 0.07122258 
17.82525 -1.5874 -9.655 0.21252301 0.69031125 0.6915955 
14.76119 5.7864 -9.702 -0.13085964 -0.61574364 0.7770042 
30.06465 8.3557 -5.737 -0.543284 0.83700854 -0.06526248 
20.32915 -1.5661 -3.815 -0.7104112 -0.5639022 0.421106 
-27.47675 -1.0585 1.378 0.050246846 -0.6958065 0.7164695 
19.93725 -2.7928 -6.517 -0.3654542 0.89336336 0.26142895 
-21.42505 -1.2639 17.839 -0.28784138 -0.31057355 -0.9059202 
20.67295 0.0946 -2.084 -0.3164346 -0.91279995 0.25819647 
-1.58311 2.7374 -3.993 -0.292477 -0.46352565 0.83642167 
-3.11295 -5.1914 3.888 0.14603123 -0.94286054 0.29948092 
-1.47631 -5.9818 0.371 -0.41379476 -0.9100406 0.024494294 
-26.26245 -7.7903 3.166 0.7763301 0.52587056 0.34752214 
-9.47145 2.997 0.538 0.14547141 0.75480044 -0.6396205 
-13.45085 -4.6952 16.649 0.32358748 -0.061469704 0.94419944 
-25.36815 4.8732 8.185 0.24274872 -0.97001123 -0.012298149 
-23.69315 -7.9107 19.118 -0.67364216 0.48946586 -0.55374134 
-33.22305 -10.5038 4.129 0.18089415 -0.14604613 -0.9725985 
5.50775 -4.8539 -1.123 -0.80318564 0.5943952 0.03983895 
9.096317 -1.8223 2.492 0.30014384 -0.5071039 0.8079352 
-32.78645 -4.8628 2.157 -0.30468985 -0.43150505 -0.849098 
9.74337 -3.5937 -4.697 -0.65267473 0.5115526 0.55886465 
-22.83045 -0.7666 17.79 0.06360824 0.38349184 0.9213512 
-3.01215 -4.9518 -0.43 0.19721396 -0.8419364 -0.5022447 
-3.14295 3.8942 5.012 0.048798304 0.70376295 0.708757 
31.35025 1.8371 -6.469 0.6070518 0.76135767 -0.22764589 
22.38375 5.8124 -2.289 -0.10447607 0.34057194 0.9343958 
-34.35045 -10.2238 7.101 0.93263906 0.1543572 -0.3261261 
1.69067 6.1754 -2.186 0.7704178 0.0460424 -0.6358746 
18.06667 7.9956 -3.353 -0.72454137 0.36249575 0.5862053 
-3.32415 5.5706 3.005 -0.48612642 0.711923 0.5068005 
-8.63925 2.4528 -0.665 -0.87684286 0.37675896 -0.29866254 
32.16125 0.5591 -13.027 0.19438167 0.56781673 0.7998749 
23.74405 6.7153 -2.234 0.65465814 0.08786644 0.750801 
1.002 1.3834 6.179 -0.92565113 -0.07657407 -0.37054884 
3.52696 4.2868 -5.312 -0.27298948 -0.5342325 0.80004525 
19.39545 -1.5317 -3.871 -0.44486043 0.87891084 0.17208993 
-30.91445 -7.4835 15.011 -0.64572823 -0.49128193 0.58453155 
-25.06655 -12.9134 6.915 0.17161123 -0.95916426 -0.22484107 
-6.53745 1.2172 8.05 0.30931017 -0.14548382 -0.9397668 
15.54171 -2.5732 -5.019 -0.31668425 0.9259136 0.20590079 
-14.76005 3.5414 6.225 0.61522347 0.74454045 -0.25915167 
-12.58445 -10.3487 11.094 0.37909046 -0.6129503 0.69324046 
-5.73695 4.5826 0.571 -0.69249547 -0.6018888 0.3977184 
18.90725 8.1982 -10.508 0.96397656 -0.24963613 0.09182026 
20.47545 -0.8424 -9.539 0.08783358 -0.99438286 -0.059058946 
-15.76925 -5.4536 17.049 0.5045911 -0.49882242 0.704673 
28.11415 0.5695 -12.955 0.68809605 0.7254811 0.014178387 
-26.37065 4.4252 12.644 -0.27381474 0.96174747 -0.008206247 
-25.24575 4.1965 14.469 0.2171208 -0.9716125 0.093955494 
3.25653 -4.9992 -1.004 -0.7704713 -0.62310725 0.13457838 
-35.90345 -7.0073 9.848 0.12795283 0.14975438 0.98040897 
-4.96575 -2.8529 8.499 0.83532685 -0.20596161 0.5097145 
2.83196 -4.6147 0.598 -0.5698889 0.82015127 -0.05077932 
33.69695 7.4162 -5.486 0.69573885 0.09586103 0.7118695 
29.89885 10.4247 -7.488 0.15437289 0.9260197 0.34446555 
-40.36735 -4.9927 15.001 0.92239916 0.26094142 -0.28476194 
-14.59655 -1.7063 16.211 0.2860565 0.27979323 0.9164537 
-30.38925 -8.9607 17.558 0.81639165 0.24155444 -0.5245533 
26.54515 10.1459 -13.379 -0.73726267 0.5872179 -0.33409408 
31.49435 3.0384 -5.928 0.55647486 0.49460396 -0.66760963 
-7.51865 -6.7869 3.264 0.86048174 -0.4107272 -0.30145374 
-13.33375 4.065 5.34 0.60814655 0.7495476 -0.26141188 
14.15715 -2.0183 -0.362 0.64644605 0.59538317 -0.47710213 
2.63833 5.2963 3.682 0.6419891 -0.35649464 -0.6787942 
-24.25385 -9.8243 3.255 -0.55099005 -0.60826796 -0.57133186 
7.716682 -1.1338 -6.901 0.3226755 0.5537393 0.7676284 
15.40897 -1.2879 -8.815 -0.34860083 -0.92185104 -0.16931657 
34.41065 1.3546 -13.916 0.18997912 -0.9118386 -0.36394817 
23.68575 5.5522 -1.556 0.97700775 0.20872357 -0.04347817 
27.64945 2.0956 -15.364 0.69079566 -0.20600273 -0.6930831 
7.72207 5.4314 2.282 0.5220222 -0.34802228 -0.77869976 
30.83295 10.0283 -8.156 -0.49455795 0.6440835 0.5835828 
15.27293 5.9916 -0.607 0.21747611 0.18655474 0.95807177 
23.06965 7.8782 -4.29 0.25727546 -0.49236482 -0.83149636 
5.39092 -2.5677 2.629 -0.06620167 -0.6879031 0.72277707 
9.200007 -0.7497 -7.515 -0.20169425 -0.36563566 -0.9086418 
20.63125 1.1239 -12.819 0.868304 0.4142679 0.27281898 
22.03565 -2.0511 -5.917 -0.6476706 0.75729495 0.083827995 
-6.37775 -0.0681 8.351 0.16892812 -0.13295454 -0.9766199 
-26.42735 -8.2063 1.315 0.4579931 0.18149649 0.8702306 
25.10515 5.8201 -2.092 0.29740614 -0.006426533 -0.95472944 
13.14662 -2.9948 -3.515 0.6140213 0.7531412 -0.23612721 
33.31435 11.1386 -9.469 -0.22813977 -0.93479085 -0.2722469 
-12.30535 -7.6126 4.936 0.84449 -0.39619365 -0.36037096 
-10.72535 -0.2504 10.739 -0.0032986493 -0.060990807 -0.9981329 
4.37167 -0.3518 -6.555 -0.6659636 -0.09459946 -0.7399618 
-34.16175 -8.9535 14.579 -0.41567054 0.88687897 -0.20165248 
16.06972 3.6593 -0.006 0.006781137 -0.06901539 -0.99759257 
15.7389 -2.302 -6.474 0.2768479 0.91893387 0.28091952 
3.54367 6.7616 -2.743 0.00779375 0.94454265 -0.3282963 
18.43795 2.5385 -11.778 0.28374928 0.32667685 0.9015368 
10.8465 -3.1149 -4.543 -0.33368847 -0.93151355 -0.14468783 
-0.49491 5.1608 4.426 0.6600887 0.7392279 0.13351037 
10.43536 -0.2579 -8.198 0.11739549 -0.4140019 -0.9026742 
16.97883 8.3295 -9.962 -0.5486924 0.6136197 -0.56780946 
17.20196 8.5043 -6.953 0.45567426 0.8081564 -0.37315443 
37.25105 7.9531 -9.71 -0.9906653 0.1095648 -0.081103705 
5.92173 3.955 3.196 -0.17139152 0.49682447 0.85075873 
18.81195 4.1302 -0.282 -0.4479859 0.7582309 -0.47370303 
21.63455 -0.2534 -3.648 -0.25655434 0.28730866 -0.92284 
16.06236 8.3582 -5.629 -0.17923675 -0.9832371 0.033451263 
6.8917 -4.3758 -2.68 0.8380123 -0.45577615 -0.3000059 
18.91635 -1.8358 -3.433 -0.43675774 -0.5619892 0.7024321 
2.1305 5.674 -2.617 0.54294026 0.70637256 -0.45415157 
10.93256 7.9345 -2.395 -0.75966364 0.5040148 0.4109504 
25.63915 10.1405 -9.925 0.21398848 0.9757348 -0.0463744 
7.612573 -3.6801 -3.54 0.53491366 0.83207893 0.14666963 
12.73931 -2.9394 -2.933 -0.19623955 0.97585607 -0.09589055 
-9.94405 -0.3261 -1.794 -0.6365564 0.06967366 0.76807654 
5.30892 7.1188 -2.341 -0.76688445 0.6177083 -0.1741397 
26.61385 5.7541 -14.785 0.8651714 0.013401361 0.50129724 
31.76885 0.5692 -9.87 -0.7143405 0.69178444 -0.10560242 
-12.60145 3.8017 3.708 0.8965715 -0.44045964 0.04642039 
26.33795 -1.309 -8.944 -0.60198367 -0.5928032 0.53497666 
22.99335 3.4989 -13.226 -0.23443218 -0.15854356 -0.95911705 
19.55335 2.1193 -12.418 0.6441855 0.007922247 -0.76482826 
-32.53255 -8.1614 7.563 -0.90391207 -0.42212313 0.06895644 
-5.92265 4.0828 -0.212 0.15874656 -0.7715311 0.61606765 
20.31935 9.2939 -10.273 -0.64558387 0.70226043 -0.30008617 
-19.95465 -12.0003 5.941 0.09796297 -0.9745533 -0.20161626 
-28.79385 0.9882 3.288 0.6878333 -0.25739014 0.67870146 
14.73267 5.4885 -9.965 -0.20317139 -0.5689553 0.79687595 
-29.81415 -14.0207 10.16 -0.33830306 0.9174538 0.20935512 
-27.40195 -8.7484 2.278 -0.3606538 -0.41739643 -0.8340917 
1.43145 5.5714 -1.695 -0.24207693 0.9333031 -0.26522458 
34.34125 11.672 -14.968 -0.4655855 -0.7469708 0.47462067 
-23.02875 -0.1013 17.622 -0.16043848 -0.3633984 -0.91771513 
14.55452 6.9894 -9.105 0.5450358 0.4983699 -0.67421323 
-27.42755 -14.0804 12.519 -0.2385276 0.9286003 0.2842641 
-2.74725 1.2053 -3.987 -0.3779422 0.06687501 -0.9234108 
-25.24825 -7.1842 1.285 0.8562121 0.2605457 0.44611305 
-7.31185 -0.7118 9.431 0.44487718 -0.05240619 -0.894057 
37.80065 1.4687 -10.99 -0.9392812 -0.16967946 -0.29826105 
-10.00135 -6.5882 5.384 -0.37447548 0.91952574 0.11933365 
-28.58655 5.9708 7.399 0.28346002 -0.8684268 -0.40679884 
10.70997 5.7033 -8.778 0.8694942 -0.41612777 0.26611558 
-31.64385 0.3367 3.761 0.44013932 0.7476935 0.49722418 
-0.65034 -5.1878 0.861 -0.26867443 0.9246437 0.26990375 
19.00935 9.2313 -6.485 -0.57558745 -0.7893195 0.21371426 
19.23755 -2.1159 -3.903 -0.8576785 0.5075622 0.08226954 
-8.78385 -6.3929 0.897 0.64973104 0.76013064 0.00713471 
9.40812 7.0312 -4.659 0.18530862 -0.8558355 0.4829144 
21.76705 -1.17 -8.219 0.18441446 -0.93953 -0.2885734 
9.93802 4.7818 2.251 0.8260704 0.08077266 0.55774856 
16.25193 -2.5336 -4.858 0.57183623 0.8095099 -0.1330305 
-10.16245 -1.9592 -1.703 -0.96252215 -0.13076574 -0.23759504 
-23.16545 -2.7528 -1.286 -0.25230202 -0.31287584 -0.91567045 
11.0491 7.0507 -6.57 -0.9548312 0.2958664 0.027576383 
18.47285 -1.1829 -10.216 0.5800184 -0.46216422 -0.67080766 
16.74106 7.3007 -2.045 0.22068737 -0.5434029 -0.8099447 
-4.47645 0.721 7.866 0.5365506 0.13467728 -0.8330519 
-1.63765 -5.5048 2.208 -0.23766214 -0.92447746 0.29809076 
38.16735 5.3115 -8.648 -0.9501331 0.14969805 -0.2735646 
1.12989 -2.3953 5.538 -0.39708015 -0.6060994 0.68918127 
25.88825 0.3781 -5.332 -0.7028575 0.47528633 -0.5292393 
12.2324 -3.6907 -2.47 -0.3223383 0.9288199 -0.18273379 
26.25295 4.2332 -3.27 -0.26050836 -0.30982858 0.9144078 
-10.00455 -3.8337 10.191 0.061109662 0.39265174 -0.91765475 
-22.24235 -9.561 16.546 0.370968 -0.51173186 0.7749279 
-37.99475 -6.4003 9.86 -0.37348276 0.010312282 -0.9275798 
-5.81675 3.1531 6.42 0.45416954 -0.5017666 -0.73617953 
24.37385 0.0539 -5.461 -0.5054712 0.8007087 -0.3215034 
-14.72765 2.7687 1.874 0.15713175 0.71890825 -0.67711186 
30.67385 10.7547 -12.279 -0.07935656 -0.9700995 0.22936755 
34.19145 11.1044 -13.328 -0.7009844 0.68571013 0.19601648 
32.74845 11.1831 -11.289 0.6760488 -0.7340525 -0.06422567 
31.44145 7.6805 -5.879 -0.94028115 -0.33984292 0.019444972 
14.81099 5.0573 -10.208 -0.019456344 0.38591138 -0.9223307 
13.07834 -0.5714 0.397 0.6103353 -0.6331488 0.47603938 
-5.99525 3.7393 -0.688 0.20530821 0.8149714 -0.5419135 
21.51945 9.3738 -9.952 -0.45262054 -0.8089426 0.37516192 
-3.20215 0.3954 7.167 0.011237561 -0.0857352 -0.99625456 
-39.63655 -6.0369 13.405 0.2571555 -0.9540502 -0.15381578 
18.37115 -1.4144 -8.383 0.40941194 0.89820385 0.1600366 
31.31065 0.7039 -14.204 -0.6995276 -0.69537914 -0.16464801 
-14.33955 1.3673 1.516 -0.37334174 -0.64520895 0.66657436 
-13.92445 3.5402 5.525 -0.65581906 0.695196 0.29428536 
-6.51505 0.1863 -3.592 0.2025005 -0.7263872 0.6567763 
-11.37855 0.4267 -0.626 -0.10495758 -0.37366185 0.9216077 
-1.39464 3.0335 -3.757 0.0753868 0.46070668 -0.88434505 
-7.33395 3.6165 0.219 -0.14466129 0.8963249 -0.41913587 
-10.89775 -7.7083 4.043 -0.15439704 0.9879626 0.009560452 
-8.57075 -0.7819 9.578 0.9493676 0.17884766 0.25829193 
31.51575 -0.1969 -11.311 -0.8203428 0.56945837 0.05248712 
-15.48185 6.7874 7.707 -0.061291628 0.9663041 0.24999931 
-8.18545 1.6037 -2.388 0.5277961 -0.5070304 0.6814333 
4.5747 -4.2628 0.447 -0.69432545 0.7130866 -0.09705475 
16.70355 -2.1412 -3.705 0.45281562 0.8503455 -0.26808685 
28.11755 9.8367 -12.403 0.46593654 0.7476246 -0.47324482 
12.45854 -2.7639 -2.571 -0.46047065 0.872884 -0.16137023 
34.68615 3.6606 -16.614 0.26271787 0.2311257 0.9367818 
7.737274 6.0542 -5.869 0.910988 -0.37401175 0.1738277 
17.08253 7.9325 -3.97 0.06712062 -0.96839917 -0.24020386 
-27.84065 -13.6999 8.801 0.11319551 -0.9806882 -0.1594912 
31.85425 4.5228 -4.889 0.47287732 0.45068923 -0.7571435 
-5.04705 0.5756 7.791 -0.064028405 -0.20580007 -0.9764972 
-30.48215 -13.0613 4.767 0.18924052 -0.9800188 -0.06124711 
3.85172 -3.139 3.186 0.06373446 -0.7902996 0.6093968 
4.86446 0.0679 4.483 -0.5538582 0.13331129 -0.8218693 
-3.31565 -5.433 3.941 0.56898385 -0.79090774 0.22521622 
31.13915 6.5759 -16.78 0.457309 -0.1817332 0.8705409 
-9.34525 4.3826 2.732 -0.8351956 0.51522505 0.19233152 
16.22169 8.7182 -6.02 0.36072075 -0.90022963 0.24385896 
-29.52165 4.5602 6.484 -0.3508141 0.31399366 -0.88223433 
21.34995 6.1258 -12.696 -0.42881602 0.39964083 -0.81018764 
-29.15655 4.9285 8.643 0.080384515 -0.9182645 -0.38772237 
5.69088 5.5491 -5.166 0.2672635 -0.7238847 0.63605124 
31.40845 -0.4809 -9.825 -0.5010504 0.8599558 -0.09708007 
23.87045 -1.1364 -7.634 -0.25899485 0.9657612 0.015064585 
20.59005 7.9666 -2.82 0.7971454 -0.30422747 -0.5215408 
-5.62265 2.4112 -2.891 0.88316464 -0.24347249 0.40092567 
-25.11155 -14.026 13.536 -0.054038685 0.95670676 0.28599295 
-34.24325 3.3403 10.458 -0.94293594 -0.011547365 0.33277395 
-24.51815 -11.0535 3.949 0.60610354 -0.4286478 -0.6699997 
21.34355 -1.3327 -11.217 -0.1974628 0.9174832 0.34530136 
19.08745 0.3868 -11.004 -0.6453575 -0.40352723 -0.64859813 
-4.53555 -0.1258 -3.309 0.13056187 0.02436996 -0.9911406 
-1.72325 -2.5005 7.338 0.8103295 -0.341058 0.47649297 
-22.07915 5.3084 11.86 -0.067711055 0.95153475 0.29999477 
2.00418 5.9803 0.368 0.085158415 0.9963621 -0.0032673907 
17.38542 7.8919 -9.904 0.9696332 -0.23012751 -0.08278128 
25.22145 9.9146 -7.649 -0.12622721 0.6196162 0.7746886 
17.87429 -1.5524 -3.287 -0.39255878 0.8743587 -0.2852971 
38.74915 2.389 -9.919 0.93979436 -0.034104 -0.3400345 
-13.57315 2.63 2.907 0.079100266 -0.9966323 0.021616437 
18.27791 -1.9231 -7.601 0.7293896 -0.47544816 -0.49187383 
16.76895 8.5308 -5.065 -0.31707004 0.91003156 0.26703772 
22.83235 2.5729 -13.574 0.60970813 -0.18262757 -0.7712996 
-5.56265 4.2501 4.499 -0.08721686 -0.98011744 -0.17822184 
-6.94375 -6.3771 4.982 -0.7986185 0.52769274 0.28939387 
15.37682 5.4919 -0.567 0.037441052 0.42051548 0.9065125 
12.88026 -1.7897 0.824 -0.32404324 0.5433439 -0.77445036 
-8.53785 -5.8407 0.122 0.7080923 -0.28789595 -0.6447645 
