-0.051687 -0.0106669 0.165725 0.98651211 0.16367521 -0.0020681077
-0.0844524 0.0316701 -0.400816 -0.2409753 0.22944311 -0.94302002
0.392657 0.221652 -0.476837 0.95437542 0.28323775 0.094572372
-0.0831263 -0.443291 -0.440149 0.47025683 0.88074926 -0.056028972
0.212444 -0.248364 -0.408789 -0.74814073 -0.66186515 -0.047116498
0.203276 0.0452016 -0.415264 0.39818219 -0.87486115 0.27580592
-0.106054 0.507321 -0.443648 -0.67041692 0.73978053 0.05714819
0.420866 0.23117 -0.466486 -0.76486809 0.64418573 0.0012416887
0.372385 0.333575 -0.468722 -0.90915955 -0.4144193 0.041055595
-0.45009 0.0239091 -0.494587 0.75137817 -0.30403596 -0.58565603
-0.0739129 0.0397963 -0.360202 -0.95495561 0.24091563 0.17326119
0.0945223 -0.0962533 -0.424151 -0.74527976 -0.66643301 -0.02061825
-0.368162 0.284588 -0.453774 0.34302742 0.93894074 -0.02687896
-0.477602 0.0601741 -0.43371 0.55397783 -0.83016878 0.062676638
-0.437625 0.106808 -0.489193 -0.53667214 0.84205299 0.05412739
0.0073671 -0.455238 -0.496415 -0.37588759 -0.61274824 0.69516049
0.0814279 -0.0823795 -0.436055 -0.83042466 -0.55647325 -0.027063005
-0.0312889 0.131711 -0.430455 0.99796085 -0.031872072 0.055302013
-0.396977 0.202971 -0.437272 -0.99927671 0.037178613 -0.007988484
-0.0135916 0.466371 -0.446526 -0.37228967 0.92811657 0.00016503797
-0.4435 -0.116744 -0.452169 -0.60226597 -0.45296444 -0.65734231
-0.451362 -0.0025801 -0.47053 0.96864058 -0.2401033 0.063920559
0.337694 0.306305 -0.421671 -0.86913444 -0.26071406 -0.42027789
-0.157753 0.44854 -0.4317 0.99781036 -0.008871826 0.065542095
-0.402852 0.296172 -0.488815 -0.69373566 0.71973512 0.026686866
-0.316995 0.365842 -0.43368 0.33508042 0.94142605 -0.037922351
-0.170824 0.0762277 -0.39876 -0.22688099 -0.53433169 -0.81425713
-0.401508 0.154128 -0.40917 0.44598923 0.87812164 0.17319351
-0.00894522 -0.0483321 -0.243113 -0.72774605 -0.68030321 0.087024343
-0.00435514 -0.48581 -0.403873 0.80461978 0.2976014 -0.51382916
0.445227 -0.154244 -0.398759 0.091214531 -0.79265104 0.6028136
-0.17212 0.0339251 -0.498053 -0.16893434 -0.5733922 -0.80167486
-0.320881 0.368418 -0.408015 -0.21409029 -0.85854408 0.46590494
-0.480787 0.0162062 -0.465823 -0.24793255 0.96869225 0.012836424
-0.145234 -0.449191 -0.402881 -0.035777553 0.34886825 -0.93648861
0.24537 0.398548 -0.419654 0.92262327 -0.0059771292 0.38565603
-0.432259 0.242665 -0.457251 -0.98856953 -0.040133825 -0.14532571
0.17133 -0.246175 -0.397229 -0.018414033 0.051198939 0.9985187
0.280778 0.36763 -0.497938 0.30171773 -0.098152096 -0.94833147
-0.0626259 -0.0136964 -0.270784 -0.34864457 -0.91584476 -0.19918668
-0.0193721 -0.0434553 -0.237731 -0.24090426 -0.96524817 0.10129713
0.010777 -0.481074 -0.413907 0.75214711 -0.42097539 0.50700537
-0.0265759 -0.0476996 0.452381 0.52400763 0.85155666 0.016348131
0.0337197 0.0394277 -0.238686 0.642461 0.73473768 -0.21772552
0.227061 0.389536 -0.47264 -0.42645844 -0.90263368 -0.058186164
-0.125515 -0.434408 -0.444864 0.6246853 0.77645572 -0.08297467
-0.41649 0.251459 -0.480864 0.13923189 0.99023572 0.0069071136
0.0324372 0.0591752 -0.352117 -0.99426415 0.10532728 -0.018573175
-0.130742 -0.143766 -0.39876 0.61020193 -0.34669881 -0.71235773
-0.468903 -0.144524 -0.472316 -0.64964553 0.73489326 -0.19466016
-0.194302 -0.444639 -0.496365 0.35423589 -0.3616693 -0.86238753
-0.447924 0.157699 -0.462735 0.12129824 -0.98878845 0.087086969
0.0527738 0.0124895 0.117058 -0.96351425 -0.26385356 -0.044962083
0.463032 -0.0308243 -0.433486 0.25874012 0.1420061 -0.95545163
0.294612 0.404935 -0.394526 0.93211068 -0.015222006 0.36185353
-0.0179948 -0.0422534 -0.324233 0.12052302 0.985007 0.12343183
0.156331 0.0705618 -0.482094 -0.25956069 0.94089834 -0.21757425
-0.160856 0.0268116 -0.401795 -0.46273744 -0.82246671 0.33079083
-0.193624 0.0729948 -0.381571 0.012389309 0.20518023 0.97864579
0.320837 0.316901 -0.401717 0.37044183 0.45748344 -0.80838218
0.369994 -0.271702 -0.496415 -0.16958131 -0.28242575 -0.94418106
0.463718 -0.158674 -0.479635 0.18241844 -0.97232786 -0.14595219
-0.00224314 0.0287041 0.499209 -0.0047639175 0.040161781 0.99918183
-0.0468025 -0.448445 -0.432484 -0.054760303 -0.9523214 0.30014208
-0.122166 -0.116757 -0.447372 -0.800697 0.5969795 -0.049997916
-0.26569 -0.387485 -0.42401 0.26732164 -0.96352289 -0.012758569
0.333319 0.138741 -0.440539 0.28895252 -0.94621194 -0.14556581
-0.0513695 -0.012511 -0.13982 -0.96638249 -0.24881978 0.064757963
0.17932 0.0708529 -0.49095 0.29957458 -0.43131366 0.85101327
0.393625 -0.231773 -0.470074 0.98891579 0.057449831 0.13691269
0.323504 -0.339943 -0.449673 -0.97328853 -0.22584037 -0.041298486
0.258626 0.0601358 -0.46121 0.29462588 -0.95174155 0.0859279
0.363486 0.28657 -0.4401 -0.061612803 -0.77966044 0.62316407
0.0161479 0.00877294 -0.362229 -0.96319704 -0.22806581 -0.14225835
0.113802 0.480531 -0.460214 0.94215344 0.24538141 -0.22833061
-0.449145 -0.0612705 -0.442983 0.83197391 0.046145744 0.55289237
-0.197482 -0.246757 -0.496415 0.34574795 -0.17450342 0.92195819
-0.320016 0.0792633 -0.412327 -0.31122588 -0.94084003 0.13400932
0.0679597 -0.132205 -0.488744 0.71489086 0.69613701 0.065759524
0.246881 0.433129 -0.459289 0.50700938 0.84813708 0.15363914
-0.241362 0.10232 -0.409082 0.27642628 0.94481635 0.17581401
0.455941 -0.110175 -0.415422 -0.66239473 0.73803828 -0.12857959
-0.432054 -0.25166 -0.427745 -0.69024767 0.63146469 -0.35328529
-0.0283475 -0.0450588 0.331084 0.60095113 0.79925432 0.0070899871
-0.0414521 0.0342664 -0.338553 -0.24153695 0.95299214 -0.18293681
0.423866 0.222292 -0.48376 0.96144196 -0.22315222 -0.16072474
0.0391725 -0.0412218 0.125027 -0.67796975 0.73493844 -0.014916632
-0.43793 -0.162193 -0.421344 -0.49299473 -0.86974698 0.022279545
0.138803 -0.237706 -0.512907 0.36580131 0.32210105 -0.87317829
0.152568 0.0734686 -0.466606 -0.35549788 0.93414485 -0.031538282
0.407513 0.153344 -0.392246 0.15237375 0.47652028 0.86585834
-0.167888 0.415763 -0.490271 0.61546703 -0.77805674 0.12580957
-0.129867 0.0673395 -0.417384 0.30209476 0.95298665 0.023562828
-0.209163 0.414193 -0.47348 0.39718676 -0.74328638 -0.53830107
0.190609 -0.294679 -0.396884 0.15995846 0.27511467 -0.94801119
-0.39004 0.293491 -0.424669 0.021061361 -0.99952153 0.022652175
-0.392653 -0.247326 -0.443869 -0.098830681 -0.9950804 -0.0068912985
0.0529965 -0.471884 -0.460377 0.47500987 -0.84567279 0.24331698
0.150648 0.478365 -0.435321 -0.20469746 0.97880029 -0.0069958674
0.28632 0.371153 -0.406937 0.90306855 0.035255146 0.42804705
0.184742 -0.290241 -0.401268 0.56596164 0.2836158 -0.77411207
-0.0741075 -0.139309 -0.458966 -0.80958235 0.58464553 -0.052593014
-0.0511699 -0.0177553 0.340936 -0.92799255 -0.36537629 -0.073006865
-0.0125036 0.00241585 -0.2887 0.73366073 -0.22889156 -0.63980511
-0.277264 0.355745 -0.470457 0.30075102 -0.71352042 0.63280126
-0.182234 0.438014 -0.485379 -0.57956906 -0.80761459 0.10889614
-0.161258 0.0842732 -0.449502 0.24426487 0.96869946 -0.044226973
0.392534 -0.220792 -0.465237 -0.84827591 0.52729414 0.048875977
-0.407 0.249306 -0.462634 -0.11404425 -0.99292438 0.033092022
-0.0865209 0.458328 -0.395837 0.20130563 0.13707518 0.96988991
-0.389297 0.251339 -0.414537 -0.13766819 0.99046625 -0.004907466
-0.0530899 0.00207172 0.371228 -0.99848649 0.030624605 -0.045682192
-0.294915 -0.340857 -0.4729 -0.84126906 -0.53339049 -0.08809626
0.375523 -0.248501 -0.401337 0.55868731 -0.35095725 -0.75146357
0.108797 0.469034 -0.430912 0.97036321 0.17821952 0.16319634
0.0380257 -0.0785962 -0.446138 0.43834579 0.89876571 0.0085540391
-0.397786 0.164619 -0.419925 0.60312298 0.78573798 -0.13732622
-0.108114 -0.437878 -0.452012 -0.29631662 0.91178675 0.28432619
0.405688 0.292269 -0.464057 -0.79798678 -0.55749539 0.22894537
0.0183725 -0.450594 -0.477472 -0.13373729 -0.97518117 0.17645404
-0.328963 0.38106 -0.407999 -0.25174873 0.94056488 0.22794799
-0.19068 -0.448782 -0.452267 -0.57352232 0.81883904 0.023974598
-0.0949894 0.0556528 -0.389436 0.13030081 0.41458915 0.90063174
-0.0274847 -0.0454602 0.308548 0.60366984 0.7964286 -0.035836006
0.171097 0.430812 -0.467796 0.23240372 0.66982033 0.70521574
-0.0563129 0.0216332 -0.383174 -0.86009606 -0.28888197 0.42045448
-0.00518713 0.284263 -0.496415 0.027396045 0.11955592 -0.99244941
-0.0104275 -0.0536498 0.223624 0.17612901 0.98392176 -0.029606446
-0.0130463 -0.0461862 -0.377002 -0.49663693 -0.86790894 -0.0092647889
-0.165743 -0.198007 -0.495232 -0.38656478 0.20624528 -0.8989052
0.258275 -0.323684 -0.496415 0.54556068 0.45593266 -0.70319908
0.173736 0.418797 -0.457082 0.68122159 0.69128883 -0.24095
-0.120515 0.468282 -0.414911 0.81774358 -0.57016446 -0.078790458
0.323822 0.335443 -0.497012 0.61101442 -0.10859488 -0.78413553
-0.0549714 -0.00292898 0.347613 0.99802146 -0.054904085 -0.03063817
-0.496013 -0.0549025 -0.47554 -0.99204198 -0.10509644 0.069335757
0.0531783 -0.0071676 -0.209083 -0.99051234 0.1200513 0.066880413
0.0538337 0.0139776 0.10181 0.96363725 0.26334364 0.045314126
0.0538362 0.0116699 -0.496415 -0.035460911 0.10385062 0.99396055
-0.362968 0.336707 -0.468835 -0.0036667501 0.99969781 -0.024307441
-0.446188 -0.0584885 -0.487085 -0.97485119 -0.22142649 -0.025208425
0.25047 -0.390896 -0.494227 -0.25152983 0.34863054 0.90287845
-0.228598 -0.294484 -0.397235 -0.13099138 0.10775463 0.98551012
-0.0431289 0.030816 0.253196 -0.78023643 0.62396085 0.043634559
-0.084414 0.46186 -0.401408 -0.4840464 -0.5699045 -0.66400899
-0.022142 0.0493748 0.253301 0.39215551 -0.914208 0.1021655
-0.0627718 -0.00924091 -0.496415 -0.10064896 -0.17861079 -0.97875838
-0.459917 0.138782 -0.402122 0.6157141 0.43653797 -0.655996
0.324554 0.0779006 -0.409043 0.34052727 -0.91901943 0.19860632
-0.35964 -0.334668 -0.431061 -0.17791933 0.98140567 -0.072025199
-0.00180537 0.259807 -0.401001 -0.028900742 -0.027192302 0.99921235
0.00868295 0.0507119 0.0516011 -0.1512398 -0.98849708 -0.00019566544
0.424837 -0.154549 -0.449576 -0.83216729 -0.40982438 0.37355265
-0.358974 -0.306981 -0.404636 0.73866007 -0.27206667 -0.61673416
-0.0430803 0.0355371 -0.317016 0.51438953 -0.84867499 -0.12310224
0.0270561 0.0537571 -0.351792 0.88808899 0.18328149 -0.4215517
0.373742 -0.270487 -0.408246 0.62415879 -0.27222777 -0.73233725
0.0631009 -0.484149 -0.411468 -0.90393035 0.33927198 -0.26039288
0.120783 -0.434488 -0.466003 -0.37653084 0.9164657 0.13533343
-0.0365036 0.468777 -0.477959 0.69029081 0.70022848 -0.18215014
0.0899834 -0.00562282 -0.404076 0.79913735 -0.27155054 0.53632061
-0.322886 0.333968 -0.465987 0.46998729 0.44300457 0.76345196
-0.387766 0.233659 -0.411751 0.99485348 -0.056304654 0.084239761
0.500246 -0.00221088 -0.448165 -0.99954519 0.028173063 -0.010756029
-0.404148 0.154324 -0.446316 0.54438387 0.83875483 -0.011685108
-0.474269 -0.146642 -0.432755 -0.83147237 0.52143465 0.19172793
-0.0417311 -0.0336957 -0.183 -0.80732604 -0.58910205 0.034401102
0.05069 -0.0163227 0.385893 0.97013387 -0.24159881 0.021686148
0.0500474 0.0382152 -0.264687 0.38636318 -0.91126593 0.14254087
-0.00237369 -0.0527688 0.1576 0.00041620472 0.99138751 0.13096045
-0.0685625 0.44571 -0.476841 -0.018231732 0.97484495 0.22213719
0.139847 0.0601292 -0.39876 -0.20313068 0.10315853 0.97370234
-0.364775 0.265013 -0.442684 0.71696174 -0.66460309 -0.21040102
0.0920135 -0.0138645 -0.369699 -0.98070323 -0.1952704 -0.0095209674
-0.0272569 -0.0324831 -0.116246 -0.61678236 -0.78374312 0.072981121
-0.335248 0.303646 -0.490962 -0.45429163 0.59095296 0.66662861
-0.383082 0.290737 -0.412878 -0.20590022 -0.97575699 -0.074184858
-0.357522 0.09227 -0.425683 0.23596921 0.97114914 0.034465567
-0.00886585 -0.0622144 -0.246713 -0.96008857 -0.219011 0.17396587
0.435473 0.157567 -0.467788 0.5131814 0.85601469 -0.062319362
0.204789 0.435469 -0.435884 0.94959145 0.27296914 0.15415555
0.18318 0.083415 -0.400489 -0.18175813 0.67613815 0.71400363
-0.316859 0.316617 -0.482894 -0.65359362 0.75608323 -0.033963734
-0.0166969 -0.0470841 0.483192 -0.28798584 -0.91697362 0.27608609
0.234316 -0.385357 -0.427322 -0.99768593 0.0079061123 -0.067529779
0.152399 0.428968 -0.398873 -0.19308982 0.17734386 -0.96502097
-0.0101279 0.00151492 -0.285945 -0.56429413 0.18545105 0.80447501
0.471564 0.145628 -0.440082 -0.94989363 -0.18785934 -0.24982187
-0.287985 -0.405129 -0.410853 -0.96073925 0.27720243 -0.011785646
-0.109727 -0.195891 -0.429883 0.80778932 -0.58653945 -0.058718704
0.417182 -0.167866 -0.482971 -0.77419603 0.5585619 -0.29770643
0.0161044 0.463553 -0.404739 0.43151717 0.57336127 0.69645516
0.237621 0.436831 -0.425852 -0.36539071 0.92883721 0.061245901
-0.0225567 0.41413 -0.405045 0.82310509 -0.063609924 -0.56431533
0.252044 0.386383 -0.468668 0.28890669 0.89064834 -0.35111033
0.236323 -0.363938 -0.416801 -0.9313846 -0.33554786 0.14117494
-0.238152 0.372616 -0.448695 -0.56096434 0.82282035 0.091025734
0.0357959 -0.0382699 -0.0122039 -0.63621643 0.76930782 -0.058259161
-0.185708 -0.442457 -0.490139 0.76105173 -0.51479105 -0.39470297
-0.0631532 0.0620462 -0.483042 -0.67212975 0.71452612 -0.19414948
-0.327261 -0.302282 -0.466272 -0.7739661 -0.63225896 -0.035001288
0.205547 -0.407215 -0.486407 -0.66541556 0.49357592 -0.56000441
-0.4177 -0.240829 -0.490821 -0.26621919 -0.20806569 -0.94118862
-0.372475 0.32742 -0.426482 -0.23362768 0.95574797 0.17878456
-0.209288 -0.291666 -0.394242 0.097846813 -0.18975054 0.97694459
-0.029717 0.0434716 0.358032 -0.48308397 0.87551567 -0.010109065
0.392993 0.226546 -0.412587 -0.87053191 -0.41438612 0.26543988
0.0777645 -0.00714866 -0.385992 -0.76311854 -0.57743684 -0.2902013
-0.246636 -0.43504 -0.485428 -0.72471611 -0.61337988 0.31392941
0.382515 0.264367 -0.497223 0.13848208 -0.295055 -0.94539159
-0.370494 0.095804 -0.423374 -0.19072475 -0.96647461 0.17190374
-0.451756 0.207256 -0.450018 -0.28421754 0.95654785 -0.065089153
-0.378351 0.148023 -0.50351 -0.329017 -0.56754949 0.75474194
-0.484516 0.0237902 -0.480864 0.83365925 -0.27712657 0.47771657
0.4271 -0.237289 -0.47231 0.86272092 0.49442958 0.10607544
0.123015 -0.207982 -0.473215 -0.80272131 -0.58979929 0.088177622
0.051586 0.0125159 -0.0225095 -0.99196348 -0.12637086 0.0062343005
-0.37373 -0.329444 -0.461023 -0.99610322 -0.024936074 0.084596534
-0.143693 -0.46768 -0.457996 0.75085336 -0.65803978 0.056594062
-0.20595 -0.414408 -0.455974 -0.51813287 0.8297088 -0.20765747
0.222671 0.073775 -0.507035 0.081096154 0.12767527 -0.98849504
-0.0407839 -0.0357116 0.358508 0.79734026 0.60312044 -0.022231574
0.0201671 -0.0873173 -0.409404 0.081232114 0.94070599 -0.32935328
0.0358958 0.0336105 -0.0904885 -0.7040336 -0.70247375 -0.10424644
0.361612 0.338203 -0.479504 0.023222868 0.99972823 -0.0020402698
-0.201997 -0.31941 -0.418026 -0.81094114 0.57889823 -0.085154613
-0.373039 0.137219 -0.424125 0.32909229 0.94019777 0.087900066
0.380636 0.241853 -0.472308 0.87888821 0.39848448 -0.26223203
-0.0833593 -0.0184217 -0.277835 -0.81245452 -0.56990463 0.12298933
-0.0106118 0.0531536 0.459837 0.11017043 -0.96824543 -0.2244176
0.0398561 0.0356781 0.219036 -0.58654697 -0.80052072 0.12300089
-0.384154 -0.269641 -0.488999 -0.44431854 0.64455055 -0.62220224
-0.00535609 0.495052 -0.470205 -0.3822487 0.90895349 -0.16640158
-0.169851 -0.193465 -0.459719 -0.82278504 0.56817729 -0.014119252
-0.295668 -0.403904 -0.436841 -0.67385748 -0.7317916 0.10196644
-0.337608 0.301468 -0.428699 -0.71946934 0.69445046 -0.010120405
-0.471954 -0.146599 -0.427598 -0.90285375 0.42884391 -0.030789574
-0.0125471 0.483501 -0.415796 0.97117312 -0.2375812 0.019440677
0.0195706 -0.0492668 -0.211608 0.34225523 -0.93517818 0.091121458
-0.121329 0.0252922 -0.401783 -0.13097709 -0.43523603 0.89073823
-0.465391 -0.0122351 -0.411212 0.12825312 0.93619079 -0.32725821
0.303347 -0.333587 -0.45629 0.34723936 -0.93441867 -0.079287918
-0.431309 0.109372 -0.464741 -0.51739183 0.85574491 -0.0025201965
0.0156538 -0.00493831 -0.374067 -0.92242537 0.38310462 -0.048603319
0.454092 0.13953 -0.463755 -0.6185386 0.6494833 -0.44224591
-0.258279 0.369661 -0.415315 -0.68504093 0.72422978 0.078804565
0.174266 -0.280981 -0.409262 -0.79362466 -0.53166635 0.29578842
-0.0465823 -0.0648126 -0.37523 0.11702178 0.97949334 -0.16400822
-0.00529465 -0.0820653 -0.260544 -0.80614218 -0.53769827 0.24701285
-0.168477 0.445779 -0.422604 0.64743016 -0.76078908 0.0451017
0.197224 0.405841 -0.431674 -0.41660167 -0.86445678 0.28134948
0.0530503 -0.0528108 -0.245541 0.87852779 0.33745908 -0.33809804
0.364359 -0.336114 -0.411205 0.58903231 0.78540935 -0.19019226
-0.0144364 0.0474122 0.32624 0.37341117 -0.90946347 -0.18286689
0.471843 0.146522 -0.406733 -0.87320586 0.4652537 0.14508799
0.182837 0.412536 -0.494987 0.31918357 0.5847744 0.74576186
0.327679 0.0991412 -0.400188 0.052156484 0.15824148 -0.98602197
-0.23658 -0.426379 -0.480074 -0.46478075 0.61446213 0.63750697
0.330969 0.294512 -0.46415 -0.74857775 -0.66213046 0.034851207
0.0177095 0.0485612 0.348947 0.33372192 0.93463632 0.1228195
-0.0163692 -0.000885403 -0.351041 0.98851432 -0.148375 -0.028710493
-0.35912 -0.279959 -0.451349 0.97545988 0.18050438 0.12608012
0.001986 0.385829 -0.409206 0.13606512 0.26455223 0.95472425
0.0904673 -0.106187 -0.39636 -0.21349137 -0.12193827 -0.96930516
-0.0648505 -0.136888 -0.479757 0.86646175 -0.49892866 -0.017726365
0.183534 0.0771659 -0.497221 0.1023859 -0.60038976 0.79312626
0.189432 0.410075 -0.454715 0.21407133 0.97680384 -0.0052654262
0.249727 -0.433171 -0.466211 -0.84324248 0.53726805 -0.016886714
-0.0307666 -0.0425158 0.0580922 0.64267707 0.75818468 0.11010075
-0.498036 0.00655755 -0.398005 -0.56514477 -0.59416154 0.57234907
0.457479 -0.0304944 -0.498891 -0.0022281803 0.10900794 -0.99403838
-0.0301087 0.056957 -0.266754 0.95298464 0.22950884 -0.19785338
0.429959 0.185076 -0.387463 -0.078680104 0.14292488 -0.9866012
0.021017 0.0811045 -0.367441 -0.41652949 0.90879898 0.024240557
-0.0124063 -0.0486846 0.355568 0.18063097 0.98316479 -0.02755813
0.054443 -0.0199278 0.252005 -0.92298548 0.38480957 -0.0044045831
0.0695214 0.0319198 -0.373983 -0.71365167 0.67503156 -0.18717287
-0.231289 -0.35016 -0.399224 -0.48201985 0.384494 -0.78728725
0.433907 0.112202 -0.496552 -0.067106107 -0.11991266 -0.99051387
0.0832916 -0.0122927 -0.380124 -0.86924404 -0.45461302 -0.19427249
-0.446892 0.0629866 -0.447047 -0.86325336 0.49822853 0.08100606
0.334307 0.358634 -0.438443 0.98784261 -0.052299253 0.14639589
0.0302382 -0.0373612 0.289363 -0.62577565 0.77999094 0.0043555434
0.368412 -0.282619 -0.465281 0.33382512 0.94149495 0.046347151
0.0702228 0.018442 -0.390666 0.24312611 -0.43251738 0.86822717
0.0459847 0.0200717 -0.238331 0.82010694 0.36009988 -0.44469393
-0.0326559 0.0704697 -0.323179 -0.89305581 0.42065561 0.15968775
-0.0536413 0.000522083 0.488069 0.95580692 0.029403387 -0.29252108
0.197383 -0.4181 -0.466777 0.10597761 0.52886669 0.84206221
-0.437658 -0.182098 -0.414211 -0.79883755 0.55763686 0.22560961
0.385477 0.274807 -0.401593 -0.31447894 0.0032888566 -0.94925875
0.0545198 0.491198 -0.507805 0.20471314 0.34983944 -0.91416897
-0.0739308 0.0401638 -0.40584 0.34883269 -0.3407261 -0.87305296
0.146926 -0.456628 -0.392833 0.12719449 0.20318707 -0.97084323
0.298316 0.120825 -0.480127 -0.21868866 0.9660915 -0.13726792
0.0132423 -0.00115626 -0.387531 -0.97366436 0.13297772 0.18518813
-0.457954 -0.00923146 -0.406494 0.0014555199 0.1089497 0.9940462
0.421544 0.121101 -0.398759 0.24329234 0.10079715 -0.96470139
-0.0332754 0.0760257 -0.307036 -0.73389498 0.67431912 -0.081803922
0.352086 0.0859869 -0.435455 0.3046076 -0.95108239 0.051541234
-0.258709 0.0627116 -0.404972 0.88525176 0.08482416 0.4573119
0.0270356 0.0541 -0.279386 -0.95049723 0.1243556 0.28476429
-0.0332473 0.0368793 0.150322 -0.70744556 0.70576827 0.037575643
-0.0280044 0.0119809 0.49456 -0.061753937 0.10529828 0.9925214
-0.369442 -0.288363 -0.479729 0.11471767 0.97281166 0.20118977
-0.0240671 -0.0772578 -0.488656 0.27590897 -0.50374823 -0.81860366
0.0191969 -0.0085348 -0.44751 -0.89464331 0.44416022 -0.04832227
-0.457242 -0.0703656 -0.488867 -0.4251053 -0.82053962 -0.38209974
-0.076478 -0.0445517 -0.503293 -0.55660681 -0.22793638 -0.7988954
-0.403503 0.228185 -0.496415 -0.14598557 0.10186265 0.98402856
-0.247524 0.0856726 -0.496801 -0.0048216475 0.030345276 0.99952785
0.0473902 -0.448384 -0.417152 0.29741035 -0.94836166 -0.11025991
0.140451 0.0285032 -0.482768 -0.23478878 0.88309856 0.40621566
0.262351 0.0613461 -0.404141 0.23602183 -0.82607853 0.51174989
0.0133191 0.0524898 0.141559 -0.25541518 -0.96645845 -0.026854048
-0.11644 0.435603 -0.486286 -0.3559908 0.89082555 0.28231259
0.457656 0.147033 -0.497848 -0.048999755 -0.11649616 0.99198169
0.0257761 0.0464374 0.487672 -0.42293736 -0.90321654 -0.072964879
-0.474258 -0.148452 -0.451607 -0.79988751 0.59953646 -0.027129435
-0.324831 0.320869 -0.451728 0.29036809 -0.89703823 0.3331798
0.0153006 -0.00119859 -0.487468 -0.87020808 -0.21342178 -0.44405972
0.343638 -0.322857 -0.440735 0.093484332 0.98992279 0.10636513
-0.0508831 -0.0152139 0.00529718 0.95387961 0.29895527 0.027192413
-0.191128 0.40846 -0.447728 0.45293353 -0.85634297 0.24804824
-0.497176 -0.0473343 -0.448695 -0.88625928 0.46114202 -0.043503165
-0.21799 0.0890292 -0.394309 0.14829516 0.49774784 0.85454996
-0.0416978 -0.0337403 0.087305 -0.7054787 -0.7087272 -0.0023589984
-0.254029 0.375808 -0.496415 -0.45096851 0.59274226 0.66729605
0.360706 -0.291878 -0.493943 0.62903832 -0.23583686 -0.74073732
-0.0384082 0.0369314 -0.00417116 -0.72458698 0.6484278 0.23348468
-0.0823148 -0.448549 -0.432712 -0.81800193 -0.54047528 0.19687388
-0.0456146 -0.492963 -0.472225 -0.81972479 0.54220094 -0.184579
-0.47487 0.0572082 -0.39876 -0.052469883 0.68670242 0.72504255
0.407249 -0.246922 -0.410003 -0.0024595333 -0.99130461 0.1315641
0.0612244 0.463251 -0.419907 0.14427737 0.32774592 -0.93368445
-0.434228 -0.205141 -0.497442 0.15548968 0.56223907 0.81222546
0.298467 0.13194 -0.4726 -0.28945752 0.95480571 -0.067530735
0.318131 0.333855 -0.472938 -0.47336114 0.85714152 -0.20307054
0.495733 0.108779 -0.414671 0.69548573 0.69046547 0.19888953
-0.158969 -0.160733 -0.470578 -0.83667778 0.54464931 -0.05768383
-0.447322 -0.13095 -0.478519 -0.70486988 0.70300156 -0.094589949
-0.198938 -0.312479 -0.429658 0.83566041 -0.5479115 -0.038270983
0.231638 0.0969837 -0.427666 -0.31569965 0.94238333 0.11066794
-0.0226412 0.0782912 -0.340203 0.16209642 0.9864258 -0.026246838
-0.151084 -0.425937 -0.465912 -0.099662524 -0.96753526 0.23225611
-0.00165176 -0.0214949 -0.373021 -0.61137463 0.67025856 0.4206834
-0.385035 0.232398 -0.39918 -0.7675895 0.25992581 -0.58587108
0.176614 0.0293424 -0.490353 0.28406771 -0.86281859 -0.41815024
0.042923 0.451584 -0.48995 0.18541669 0.8242064 0.53507426
-0.321452 -0.368776 -0.494234 0.14517774 -0.69410672 -0.70508105
0.34702 0.28802 -0.446572 0.37998906 0.92375248 0.047850485
-0.192336 -0.427213 -0.496415 -0.16104274 -0.3370848 0.92759855
0.416509 0.123848 -0.483308 -0.12283376 -0.66915585 -0.73289994
-0.479366 0.0100946 -0.448649 0.56196645 -0.80105771 0.2061559
0.0645908 -0.0200055 -0.294564 0.38598145 0.8208609 0.42095808
-0.419065 0.13695 -0.392724 -0.077183387 -0.091511513 -0.99280832
0.260543 0.109395 -0.396055 0.25512118 -0.55452891 -0.79209272
-0.0756511 -0.150393 -0.494726 -0.42975743 0.48192878 0.76357921
0.311667 0.326056 -0.464576 0.52308008 0.83654277 0.16304423
-0.160187 0.460629 -0.404744 0.91270614 -0.21637756 -0.34662407
0.425049 0.202946 -0.448403 0.18062029 0.98318483 0.026905499
-0.0264914 -0.0469394 -0.18663 0.50746432 0.86160191 -0.011050529
-0.425603 -0.186938 -0.409764 -0.091036198 0.35394554 0.93082489
-0.0218937 0.0480474 -0.220118 -0.4371541 0.89724229 -0.062069096
0.488632 0.00783824 -0.412553 0.56722685 0.81366068 0.12731846
-0.458361 0.0721583 -0.418325 -0.57559571 0.59455507 -0.56142127
0.0541306 -0.000465743 -0.359258 -0.65513558 -0.71452451 -0.24546301
0.232389 0.386456 -0.419712 -0.22276382 -0.96853901 -0.11094353
-0.0520249 -0.0493056 -0.394727 0.56988912 -0.15173069 -0.8075916
0.231096 -0.389751 -0.469341 -0.39635044 0.88110146 -0.25800494
0.378557 0.131946 -0.392488 -0.4133628 -0.085487983 0.90654454
0.0554746 -0.0221588 -0.315668 -0.39871502 0.91390132 0.076227987
0.27896 0.354356 -0.482777 0.43858177 0.888893 0.13234523
0.23309 -0.360406 -0.460552 -0.83466527 -0.54695831 -0.06457941
-0.247286 -0.340501 -0.39876 -0.028844524 -0.053984856 -0.99812506
0.0266618 0.29682 -0.438525 -0.99950078 -0.022673503 0.022002349
-0.466166 -0.0355786 -0.41153 -0.40490954 0.84703209 0.34436159
0.0482913 0.0731376 -0.483648 -0.54212664 -0.82549588 0.15701996
-0.403249 -0.201881 -0.414773 -0.93445808 -0.33264741 -0.12701888
-0.00479032 0.499755 -0.436901 -0.4021526 0.91309494 -0.067312128
0.465108 -0.138394 -0.449844 0.65545335 0.7513354 0.076655151
0.452008 -0.0475345 -0.49563 -0.44151853 -0.023919189 -0.89693325
-0.0126342 -0.0106434 -0.432113 0.67840422 0.71947924 -0.14871896
0.195128 -0.305946 -0.39876 0.53969249 0.51613687 -0.66508251
-0.363239 0.0954199 -0.481336 0.20790886 0.96516756 0.15882531
0.00442056 0.0529586 0.0681307 0.10732733 0.99418923 0.0082835672
0.290813 0.339891 -0.423377 -0.7847711 -0.61902538 0.030690532
0.429759 -0.248492 -0.412649 -0.29767086 0.95183859 0.073453103
-0.321933 0.325428 -0.499231 -0.12010583 -0.17198932 -0.97774959
-0.49298 -0.0894142 -0.468811 -0.82425666 0.55822787 -0.094776573
-0.0171884 0.133782 -0.40205 0.66305636 0.014386743 -0.74843122
-0.352077 0.297884 -0.50361 -0.17029621 0.43373861 -0.88479942
0.077186 -0.00687369 -0.27455 -0.78668114 -0.55947413 0.26100093
-0.413013 -0.223648 -0.478676 0.8782758 -0.45339439 0.15187215
0.351139 -0.28294 -0.468799 -0.83882745 0.53967076 -0.071581911
0.354419 -0.299653 -0.424424 -0.56037287 -0.7252014 -0.40008147
-0.0676281 -0.0435942 -0.402046 0.50715031 0.060432186 -0.8597363
-0.0879417 0.441929 -0.413026 -0.50240872 0.85790149 0.10765921
-0.110219 -0.454247 -0.40728 0.82204497 0.28586771 -0.49246494
-0.0512338 -0.0131938 0.256288 -0.97348812 -0.22787924 0.019797075
0.353784 -0.298727 -0.435607 0.70839862 0.69041099 0.14664265
0.165706 0.419425 -0.495473 0.10974354 0.34743439 0.93126027
-0.17311 -0.43058 -0.399236 -0.13686309 -0.49220659 0.85965177
0.476354 -0.0392019 -0.466415 0.46608636 0.84940528 0.24753623
-0.00795704 -0.102021 -0.47834 0.046278154 0.99889918 0.0076654378
0.155235 -0.423928 -0.428846 -0.73214262 0.54597144 -0.40728659
0.0182753 0.249524 -0.496415 0.48117539 -0.017456829 -0.87645051
-0.249104 0.375918 -0.417452 -0.66867969 0.58236651 0.46229507
-0.382797 -0.238613 -0.457606 -0.99890465 -0.046406725 0.0059921933
0.387256 -0.228838 -0.426782 -0.85973744 0.48806881 -0.15046717
-0.255652 0.095382 -0.407129 -0.19490148 -0.49575714 -0.84630861
0.101521 0.470381 -0.466488 -0.41497312 -0.80271688 0.42830236
-0.034791 -0.0396784 0.141243 0.60008222 0.79986333 -0.010953324
-0.376231 0.270716 -0.485951 -0.33653114 0.10521267 0.93577619
-0.167169 0.034075 -0.475315 0.32250757 0.94559759 0.042825997
0.00847048 -0.0495982 -0.317371 -0.27667513 0.96093402 -0.0075280805
0.214909 -0.412413 -0.454873 0.46325175 0.85922336 -0.21710144
0.340743 -0.323914 -0.404202 -0.36115879 -0.92541094 0.11479944
-0.470593 -0.16865 -0.459063 0.66495494 0.72147618 -0.19315035
0.378101 0.0998779 -0.496415 -0.28119236 0.7679435 0.57549426
-0.368351 -0.32078 -0.403323 0.87801537 -0.25803148 -0.40312376
0.049771 0.000293161 -0.274344 -0.74383282 -0.66752199 -0.033572712
0.0392878 0.462443 -0.417689 -0.93827421 -0.29923945 -0.17348562
-0.00788792 -0.00474134 -0.285945 -0.49819466 -0.22793361 0.83656939
-0.296244 -0.397657 -0.406045 0.98218967 0.049595234 -0.1812285
0.391229 0.274298 -0.396145 -0.25639135 0.32217246 -0.91130038
-0.0413036 -0.0250566 0.0514291 -0.76089881 -0.64878975 -0.010240739
-0.302782 -0.354061 -0.454268 -0.3895968 0.47831582 0.78703768
-0.118623 0.0685478 -0.501183 -0.25562338 -0.76065679 0.5967059
-0.109446 -0.137206 -0.399634 -0.053255876 0.12687739 0.99048773
0.424678 -0.235021 -0.482221 0.72403457 0.68599758 -0.071980901
0.0170465 -0.074056 -0.496611 -0.080306103 0.22981022 0.96991659
-0.0242412 0.0821097 -0.328684 0.34795334 0.93442055 0.076070438
0.0399866 0.0355708 0.0235153 0.69180758 0.71515424 0.099783188
-0.147439 -0.473189 -0.46838 -0.30837074 0.93160354 0.19241189
0.476464 0.0603421 -0.432384 -0.14280832 -0.97857882 -0.14828785
0.0563835 0.0193469 0.165547 -0.9285696 -0.37114674 -0.0029308706
-0.0229125 0.345581 -0.486022 0.95341711 0.043663402 0.29847833
-0.330929 -0.324814 -0.498164 -0.017372036 0.12703731 0.9917458
0.315921 -0.366818 -0.42911 0.51476752 0.85732905 -0.0011378856
0.051161 -0.0176475 -0.257491 0.60503126 -0.58378258 0.54141949
0.396551 -0.21493 -0.426517 -0.77101409 0.55075159 -0.31970293
-0.155257 -0.218594 -0.384275 0.085837844 -0.14437553 -0.98579286
0.258931 0.392302 -0.411892 0.53557 0.8439718 0.029603526
-0.150004 0.478045 -0.431378 -0.94206501 -0.33485505 -0.019637143
-0.161795 -0.262732 -0.469498 0.80305692 -0.59512284 0.030469493
0.106301 -0.437938 -0.44821 -0.053483425 -0.93031194 -0.36284875
-0.227326 -0.303669 -0.39876 0.018482988 -0.093626046 0.99543586
-0.414101 -0.249522 -0.476512 -0.060154037 -0.96548035 -0.25343476
-0.450133 -0.112882 -0.405474 0.26620034 0.83567568 0.48039935
-0.412114 0.104259 -0.432664 -0.17837287 -0.98388616 0.012293718
-0.0824658 -0.028761 -0.40879 0.84533455 0.45003308 -0.28788838
0.0643374 0.0029327 -0.396833 0.28279743 0.36690948 0.88622968
-0.41865 -0.202466 -0.438887 -0.10091413 0.89728153 0.42976993
0.277342 0.0878554 -0.497721 0.059937544 -0.055879507 -0.99663683
-0.36359 0.322574 -0.44972 0.97738432 0.05503785 -0.20418309
-0.11324 -0.468086 -0.460344 0.97804533 0.15764343 -0.13629336
0.0840314 0.0511631 -0.447424 -0.039453933 -0.99841323 0.040179764
-0.0843884 -0.0149545 -0.273702 0.9090323 0.38769478 -0.15281702
-0.0798009 -0.149214 -0.399123 0.84896039 -0.48864455 0.20122813
0.158095 -0.245078 -0.39876 0.25067723 0.49205774 -0.83369065
-0.250174 0.0568315 -0.420138 -0.25708871 -0.95988437 -0.11192584
0.110274 0.0133271 -0.472521 -0.39206117 0.91828616 0.055123251
0.00214217 0.049516 0.288299 -0.029629897 0.99919811 -0.026929547
0.483834 0.0959694 -0.448933 -0.90950234 0.41502015 0.023743788
-0.105985 0.0572747 -0.422756 0.33091671 0.94351547 0.016513285
-0.296692 0.0740544 -0.428654 0.29836481 0.95425269 0.019499649
-0.199678 0.0742399 -0.491005 0.041115346 0.30449364 -0.95162658
0.0447739 0.0276593 0.16878 -0.82209264 -0.5687146 0.026970217
0.0526407 0.00645549 0.039238 -0.96472632 -0.25502623 -0.065305099
-0.0227257 0.234637 -0.43843 -0.9998483 -0.0073215849 -0.015803994
-0.396934 0.295983 -0.461821 -0.81930601 0.57326164 -0.010428451
-0.0882566 0.0525728 -0.408755 -0.12676273 0.95460009 0.26957351
0.226321 0.390592 -0.4847 -0.53259761 -0.7664849 -0.35894383
0.390827 -0.250127 -0.417944 -0.77003049 0.63800685 -0.0005453141
-0.0646431 -0.0448618 -0.49967 0.47060753 -0.022332796 0.88205997
-0.0397394 -0.0268947 -0.302763 -0.92339931 -0.38363571 -0.012544259
-0.13214 0.0190383 -0.43861 0.21711355 0.97194305 0.090489804
-0.290082 0.0865746 -0.496415 0.085645524 0.0067754683 -0.99630263
0.00417737 -0.0442217 0.493452 0.0066138633 -0.75748404 0.65282018
-0.432948 0.250875 -0.447899 -0.23791394 0.96884976 0.068753942
0.0428539 -0.0316884 -0.0897039 -0.84734592 0.5226065 -0.094272631
0.44459 0.0756011 -0.401326 0.9690927 0.22272037 -0.1060895
0.0376135 -0.0372855 0.366208 -0.75618223 0.64877972 0.085283691
-0.189136 0.0875785 -0.468742 0.27075933 0.94848838 0.16449673
-0.321516 0.367889 -0.441164 -0.34384956 -0.89376567 0.28801114
-0.449962 0.191676 -0.464956 0.73910882 0.61335819 -0.27840597
-0.271696 0.0643831 -0.443707 0.25548699 0.96444593 -0.0676051
0.252595 -0.308248 -0.410365 -0.68133363 -0.67476861 -0.28367553
-0.237615 -0.410297 -0.487237 0.034470663 0.18255699 0.98259082
0.0343623 0.462887 -0.401009 0.44599458 -0.37448167 -0.81292823
-0.0252729 -0.049309 0.230368 0.47185307 0.88109272 0.032098113
0.354841 0.29911 -0.401147 0.031265363 0.1548814 -0.98743822
0.251299 0.382239 -0.448465 0.1535729 -0.98759041 -0.032871566
0.0134087 -0.0512762 0.461121 -0.40088998 0.91610765 -0.0058308156
0.427601 0.256124 -0.402585 -0.39791731 0.90809992 -0.13044672
0.0265287 0.0449134 0.495388 0.22764474 0.62355387 0.7479027
0.0383278 0.447313 -0.470447 -0.10014023 0.96549917 0.24038154
0.240834 0.064728 -0.502019 -0.1526678 0.23281672 0.96046287
0.369942 0.141152 -0.451637 -0.33751445 0.94074066 -0.033030428
0.209379 -0.379848 -0.47918 0.54632785 -0.83746565 0.013310628
0.0160532 0.00314713 -0.360004 -0.99343403 -0.10863525 -0.035877844
0.0855239 -0.469017 -0.434679 -0.80321334 -0.59471735 -0.03405287
0.260508 0.368207 -0.462679 -0.76588726 -0.64217866 0.031988537
0.0435937 -0.030399 0.418898 -0.78046215 0.61896082 -0.088126874
-0.306363 0.0757848 -0.462102 0.24432068 0.96966358 -0.007742954
0.185167 0.0383711 -0.492652 0.2050638 -0.81337481 -0.54439899
-0.420355 0.186872 -0.447774 -0.26859971 0.13361797 -0.95393943
0.14851 0.0469303 -0.414643 0.7578122 -0.00036180156 -0.65247263
0.438182 0.164407 -0.499663 0.39395463 0.084433873 -0.9152435
-0.455071 0.0228175 -0.498435 0.10875761 -0.0702442 -0.99158335
0.203573 -0.415623 -0.440854 0.84021016 0.15045411 0.52097068
0.0698823 0.445499 -0.454654 0.36543018 0.92042854 -0.13882396
0.268467 0.392728 -0.419104 0.21921998 -0.97553792 0.016381621
0.0574433 -0.491965 -0.405579 -0.74886119 0.65993144 0.060806408
0.00894921 -0.0526819 -0.241315 -0.68580242 0.68772649 -0.23813299
0.328765 0.130718 -0.483911 0.25988113 -0.90982156 0.32355297
-0.0605164 -0.475301 -0.419785 0.95283529 0.23839433 -0.18781123
-0.0172626 -0.451851 -0.429499 -0.060053278 0.99818359 0.0048089465
0.107258 -0.108964 -0.486391 0.77650224 0.50040993 -0.38292841
0.44739 -0.0187297 -0.449732 -0.9939032 0.050736178 -0.097889108
-0.0729605 -0.455726 -0.442014 0.17200771 0.96484176 0.19873031
-0.396703 -0.240023 -0.420471 0.58950356 -0.75022602 -0.29941019
0.012249 -0.0418096 -0.496415 0.037936731 0.16300727 0.98589524
0.0515707 -0.0167667 0.0717264 0.95270608 -0.30060674 0.044572538
0.0220871 0.280112 -0.471697 0.99793807 0.014215739 -0.062590138
-0.48778 -0.0472358 -0.477424 -0.82587802 0.56384251 0.0026670084
-0.267572 -0.389108 -0.491922 0.1361872 -0.86353457 -0.48555237
0.0332462 -0.0421647 -0.164131 0.61785021 -0.77819668 -0.1125657
0.0496532 -0.00764657 0.348795 -0.99596395 0.080727153 -0.039229383
0.0811105 0.0502508 -0.478644 0.11679918 0.97533228 -0.1873096
0.00836809 -0.487299 -0.480582 -0.84741382 0.0049455819 -0.53090994
0.48941 -0.00693514 -0.39641 0.5712037 -0.50277933 0.64879833
0.0116551 0.253243 -0.500834 0.10773909 -0.063906795 -0.99212308
-0.423504 0.132588 -0.392354 -0.070073606 -0.045612688 -0.99649846
0.0241326 -0.0426451 -0.315538 0.31085185 -0.94730805 0.077321272
-0.437241 -0.11054 -0.40167 -0.53081874 -0.19196281 -0.82545851
0.00119753 -0.0838327 -0.340816 -0.69821644 0.65963267 0.27817
-0.0531974 0.00334904 0.387094 0.99818541 -0.060191857 -0.0016841809
0.163732 -0.261723 -0.444142 -0.80465164 -0.59281572 0.033245468
-0.326475 -0.310654 -0.47712 -0.85576552 -0.5112065 0.079581963
0.154562 0.475511 -0.423027 0.69190844 0.70112847 -0.17228344
-0.153455 -0.166316 -0.409873 -0.74930417 0.59923318 0.28189156
0.0523284 0.00992702 -0.0390802 0.98468011 0.094954077 0.14624913
0.0497095 0.0142611 -0.158987 -0.92481227 -0.37513516 -0.063212937
0.0156359 0.0520605 -0.24007 -0.21947879 -0.9304793 -0.29332121
-0.00992055 -0.0604378 0.0861147 0.010703168 0.99971722 -0.021234737
-0.0472709 -0.0198057 -0.23767 0.93425822 0.35320698 -0.049055143
-0.312689 0.342891 -0.474405 0.30073783 0.24227502 0.9224205
-0.405095 0.293468 -0.446944 -0.87000469 0.4896203 0.057998322
0.260098 0.368351 -0.419029 0.59237027 0.8011 -0.085651982
-0.0105657 -0.047095 -0.257093 -0.7477509 -0.64286131 0.16612622
-0.0138399 0.0634547 -0.381295 -0.36545461 -0.84668679 -0.38673558
0.0392494 0.0360861 0.494459 0.58168965 0.44292216 0.68224417
-0.268107 0.112108 -0.432086 0.43391386 0.90088605 -0.011094736
-0.414247 0.160076 -0.477756 0.56922153 0.82133721 -0.037309919
-0.037415 0.00333368 -0.275109 0.99961611 -0.018928141 -0.020232435
0.403647 0.2011 -0.411818 -0.86064422 -0.3847627 0.33354039
0.0569646 0.0224377 -0.346488 0.83256542 -0.54765736 0.083103817
0.331563 0.101542 -0.39876 0.16153485 0.24730133 -0.95537874
0.430525 0.240855 -0.444183 -0.98977619 0.13674711 -0.040537875
0.256207 0.42714 -0.485095 -0.96205704 -0.26678262 0.057212534
-0.0242873 -0.46299 -0.462629 0.010954011 -0.9977823 0.065654366
0.45741 0.137138 -0.411281 -0.59988096 0.79168541 -0.11565915
-0.201877 -0.307102 -0.474889 -0.84522522 0.51165304 0.15429029
0.464634 0.103656 -0.398759 0.0030190934 0.26430041 0.96443568
0.0275246 -0.0857699 -0.426457 0.19434935 0.9808189 0.014920155
0.220858 -0.321076 -0.494149 0.21498504 0.19969585 0.95598274
-0.0642233 0.491435 -0.43093 -0.68693098 0.72562197 0.039982457
-0.0150713 -0.470832 -0.423728 0.7723263 0.53816636 -0.33747452
-0.0537324 0.0688909 -0.473169 -0.65534088 0.75508852 0.019226597
0.20514 -0.416247 -0.493587 0.37242047 -0.1259082 -0.91948362
0.0340935 -0.0402592 0.164127 -0.69300883 0.71798213 -0.065118533
0.243153 0.102902 -0.446011 -0.19517431 0.98076677 0.0018804028
-0.185452 0.42067 -0.394824 0.080956256 -0.29469146 0.95215704
-0.190692 -0.316728 -0.435202 0.82044251 -0.56707569 -0.072795954
0.391925 0.223847 -0.488158 0.89971288 0.39333181 0.18922688
0.0465531 -0.0416405 -0.308623 -0.8682766 0.26584497 0.41883434
-0.389261 0.144802 -0.429246 0.35291085 0.93556225 -0.013311986
-0.0569887 -0.0128283 -0.155338 -0.96666938 -0.25586538 -0.009122155
0.0504955 0.0712422 -0.429497 0.56625389 0.81905288 0.092243735
0.157974 -0.45848 -0.39876 -0.67108917 0.22982909 -0.70485312
-0.441022 0.18456 -0.460852 -0.74167269 -0.67075295 -0.0034790544
0.0197012 -0.0491565 0.152764 0.2949865 -0.95469852 -0.039162615
0.31265 -0.359289 -0.45581 -0.42991751 -0.90286814 -0.00024278321
0.501396 0.00358692 -0.440748 -0.85057203 -0.45851977 -0.25746233
-0.324355 -0.341452 -0.44573 0.92868972 -0.26180477 -0.26266644
0.490915 0.0447773 -0.465368 -0.67756272 0.73492887 0.028077163
-0.432474 0.180227 -0.444609 0.60875061 0.78104949 -0.13922782
0.0465966 -0.105037 -0.434401 -0.75824326 -0.64801799 -0.07169275
-0.434438 -0.159888 -0.487622 0.76865268 -0.4933775 -0.40712615
0.203888 -0.416886 -0.421284 0.94094301 0.20396394 0.27023131
0.132454 -0.143642 -0.448833 -0.78572879 -0.61638496 0.051959957
0.327101 -0.300575 -0.452604 -0.82716071 0.55773297 -0.068841102
0.496844 0.0562277 -0.411219 -0.10858713 0.9914375 0.072529372
-0.0176108 -0.0483431 -0.226548 0.41937936 0.90697903 0.0388585
0.184901 -0.410202 -0.43162 0.31157992 -0.95014865 -0.011640352
-0.0228434 0.410104 -0.428309 -0.99048855 0.1197514 0.067764559
0.20523 0.438089 -0.413697 0.98087648 0.039182852 0.19064634
-0.10344 -0.0989111 -0.467022 -0.79614959 0.59841974 -0.089664126
0.00600778 0.136512 -0.399565 0.20199248 0.015482359 0.97926469
0.0636795 -0.00109933 -0.496415 -0.028039706 -0.10381554 -0.99420124
0.492948 0.00676833 -0.493934 -0.52332649 -0.59937498 0.60570539
-0.189927 -0.447779 -0.492396 0.66282422 -0.54457138 -0.5139125
0.493614 -0.00606026 -0.437842 -0.43014993 0.87902471 -0.20563706
0.440532 0.0952404 -0.40619 0.79986097 0.11837917 -0.58839511
-0.322302 0.0889985 -0.489697 -0.088881509 -0.65169098 -0.75325888
0.12793 -0.124617 -0.405943 0.84701342 0.52579335 0.078164087
0.178401 -0.40833 -0.43956 0.44123575 -0.89738242 -0.0039751635
-0.467777 -0.0132662 -0.440329 0.14925782 0.98743662 -0.051875144
0.457597 0.073739 -0.427142 0.89935006 -0.0092602139 0.43713123
-0.248171 -0.434069 -0.484911 -0.63245574 -0.63975038 0.43671408
0.351439 0.12956 -0.495473 0.17739838 -0.39804878 0.90004832
-0.013589 -0.0508633 0.11912 -0.31091158 -0.94827158 0.06414821
0.15746 -0.444522 -0.435869 -0.9759795 0.21659935 0.023425077
0.244631 -0.294026 -0.469163 -0.81129285 -0.56646343 0.14464815
0.0486804 -0.0456494 -0.39475 0.85034612 0.22296785 0.47665167
-0.114502 -0.201184 -0.495401 0.8187123 -0.41433589 -0.39753734
-0.0614175 -0.468704 -0.468045 -0.95532147 -0.293577 -0.034255361
0.352783 0.330818 -0.455259 -0.43768314 0.89798826 0.045282986
-0.349763 0.0806667 -0.423957 -0.23979802 -0.96850111 -0.067100787
0.451745 0.133661 -0.43881 -0.87132157 0.48794658 -0.052027412
-0.162325 -0.252717 -0.460216 -0.81992995 0.56841083 0.068000104
-0.0902354 0.00332188 -0.487236 -0.85489003 -0.34317348 -0.3890951
0.448471 0.207994 -0.477934 0.43440598 0.90032081 0.026718515
0.0126587 -0.0106211 -0.287355 0.60583858 -0.63061408 0.48506237
0.145041 0.0579245 -0.393939 -0.012790002 0.0457823 -0.99886956
0.36001 0.308186 -0.410552 0.89653518 -0.39699598 0.19651682
-0.0456556 -0.0402177 -0.327407 0.8941555 -0.1998297 0.40069194
0.271551 0.371747 -0.39876 -0.16212488 -0.32907523 0.93028222
-0.344477 0.101499 -0.498055 0.1117258 0.060365713 0.99190389
-0.414598 -0.181061 -0.398978 -0.53168651 -0.28985421 -0.79579771
0.394774 -0.288544 -0.44549 0.38653454 -0.81695769 -0.42798503
0.152291 0.0273104 -0.439587 -0.32963855 0.94140505 0.071379005
-0.161621 0.0188097 -0.451251 0.24533323 0.9651615 -0.09096643
-0.0253061 -0.0440575 -0.241309 -0.36472023 -0.92045342 -0.1405157
0.40396 0.200488 -0.413767 0.82384614 0.52892404 0.20375694
-0.0364396 -0.0125173 0.493863 0.30590266 0.13549395 -0.94237198
0.141163 -0.433771 -0.496415 -0.037653127 -0.39474243 0.91801996
-0.373292 -0.332655 -0.405528 -0.90441061 -0.21897301 0.36618612
0.305661 0.0961223 -0.491612 -0.12486113 0.0035360705 -0.99216793
-0.214032 0.411475 -0.477787 -0.44322341 0.82881621 0.34149187
-0.49321 -0.0457153 -0.420877 0.11204287 -0.98389333 0.13928498
-0.34247 0.323748 -0.398378 0.1098612 0.56843959 0.81535694
0.491806 -0.0578525 -0.46089 -0.66409196 0.68052109 0.30963353
0.192309 0.407921 -0.47205 0.027836327 -0.921062 0.3884198
0.151024 -0.425022 -0.411018 0.21176682 -0.87248719 -0.44036452
0.433487 -0.243948 -0.480281 -0.80483338 -0.4821206 -0.34612563
-0.107838 0.0345762 -0.496415 -0.0097801687 0.060906239 0.99809558
-0.0540985 -0.449939 -0.446163 0.059010655 -0.99256687 0.10643658
-0.00953142 -0.053332 0.176994 0.23054611 0.9730557 -0.0033303091
-0.0495007 -0.455792 -0.392591 -0.027468997 0.28225185 0.958947
0.0533934 -0.0131263 0.224418 -0.97223983 0.23112042 -0.036511067
-0.0232837 0.388466 -0.482198 -0.98806227 -0.13106405 -0.080963925
0.284093 0.403224 -0.408801 -0.89791019 0.43366336 0.075454552
-0.0258898 0.439988 -0.402519 0.72530067 0.24705909 -0.64257353
-0.284097 -0.343265 -0.401718 0.12749262 -0.67381992 -0.7278134
-0.0225849 0.437083 -0.467475 -0.95993493 -0.27100127 -0.071296822
-0.438736 0.104489 -0.463049 -0.93434503 -0.24524862 0.25855847
-0.34567 0.144822 -0.488182 -0.18389602 -0.92929669 0.32029661
0.0219975 0.25549 -0.403609 0.76146796 -0.043266352 0.64675697
-0.11956 0.063906 -0.401544 -0.10974727 -0.53300263 -0.83896587
-0.440029 -0.207247 -0.42698 -0.10099242 0.98792874 0.11746202
0.0521569 0.456775 -0.496018 -0.044415527 0.27078395 0.96161495
-0.0815365 -0.152844 -0.484585 -0.38771239 0.87294 0.29606563
0.307747 0.359643 -0.454692 0.22574664 -0.9687136 0.10311358
-0.238813 0.37951 -0.448162 -0.40956612 0.90794039 0.088881035
0.0390625 -0.101286 -0.378436 -0.59165983 -0.53838551 -0.60006641
0.00433098 0.292227 -0.50426 -0.097958352 0.018013681 0.99502747
-0.366603 0.318143 -0.491379 0.8262052 0.39415399 0.40252653
0.360849 -0.293757 -0.481678 -0.77298823 0.62484114 0.10983053
-0.320059 0.0820529 -0.402446 -0.19554442 -0.79791745 0.57016674
0.014187 0.0642181 -0.338251 0.87309956 -0.45870758 -0.16518025
-0.0480722 0.0183656 0.29139 -0.95924553 0.28113394 0.02849081
-0.0244793 0.0472073 0.483432 -0.54270071 0.81385438 0.20764628
-0.232223 -0.358292 -0.48383 -0.83254967 0.51980355 0.1914819
0.15051 0.435185 -0.491905 0.099108109 -0.12537393 0.98714688
-0.491738 -0.110323 -0.443752 -0.79511929 -0.6063948 -0.0084057617
-0.491736 0.0996519 -0.425592 -0.8525406 -0.52088352 -0.043068438
0.216716 -0.412597 -0.440351 0.4165737 0.84801022 -0.3276355
0.0148679 0.463857 -0.417193 0.55214647 0.82789743 0.098590694
-0.198779 -0.28653 -0.39876 -0.31578891 0.12207744 -0.94094339
0.00831946 0.0500096 -0.21058 -0.10987306 -0.99394284 0.0023534184
-0.02707 0.0802722 -0.303188 0.061599039 0.99793082 -0.01842919
-0.329831 -0.375133 -0.46682 -0.14225498 0.98200153 0.12424377
-0.445827 0.147728 -0.400448 0.15743989 -0.24445747 -0.9567932
-0.0801183 -0.00826693 -0.267803 -0.27584697 0.9391942 -0.20450599
0.263948 0.103805 -0.493135 0.20056922 -0.64469036 0.73766274
-0.116811 -0.199441 -0.495783 0.70923029 -0.32649176 -0.6248164
0.332774 -0.374243 -0.459445 -0.97432306 0.17505151 -0.14160345
0.0051041 -0.0827542 -0.36475 0.067443976 0.95022346 -0.30418201
0.0116577 -0.051682 0.351677 0.15573859 -0.98550124 -0.067326
-0.212475 0.41028 -0.430848 0.002546481 0.94560082 -0.32531923
0.436334 -0.158071 -0.439856 0.11413145 0.94448724 0.30808744
0.0568827 0.0666017 -0.436952 0.65000867 0.75741517 -0.061733177
0.366218 0.135165 -0.426389 -0.31824952 0.94703091 0.043008064
-0.149543 0.080527 -0.433817 -0.3654645 -0.9306417 -0.018485678
-0.0728658 -0.0201321 -0.360455 -0.88397451 -0.42680124 0.19086583
0.148646 0.446578 -0.39876 0.32936407 0.13887034 0.93393487
-0.0060191 -0.0655794 -0.305039 -0.76554647 -0.15831746 -0.62359778
0.0483783 -0.105253 -0.494716 0.70894657 0.48599443 0.51108138
-0.0551634 -0.446897 -0.448751 -0.059508098 0.99104386 -0.11954434
0.0136519 -0.0622452 -0.320332 -0.93261749 0.24980707 -0.26042473
-0.0138706 -0.465141 -0.405655 0.69644642 0.64757929 -0.30919807
-0.0171423 0.454005 -0.498505 0.0080166648 -0.11522484 0.99330709
0.115906 -0.121691 -0.46268 -0.80805699 -0.57801127 0.11378435
0.447523 -0.00242822 -0.43553 0.99792365 0.061415082 0.019405387
0.28696 0.36863 -0.47287 -0.94976407 0.27213506 0.15456625
-0.0138476 -0.00872856 -0.463421 -0.87361214 -0.47230519 0.11717355
-0.442448 -0.134551 -0.39876 -0.057626822 -0.20481726 -0.97710237
0.296143 0.402875 -0.418783 -0.97027787 -0.24197928 0.0026252435
-0.000732698 0.0628305 0.176518 0.0097343222 0.99960744 0.026271779
-0.460125 0.166401 -0.490125 0.10477072 -0.91731758 0.3841244
-0.0053023 0.497994 -0.406558 -0.66839461 0.70270475 0.24383331
0.162478 -0.430225 -0.495202 0.41284106 -0.063488091 -0.90858765
-0.488282 0.00831552 -0.424861 0.46101465 -0.88300634 -0.088120922
-0.0872018 -0.151742 -0.491785 -0.42324262 0.50573215 0.75173178
-0.0642642 -0.0539358 -0.376383 -0.90275915 0.42622374 0.05795894
-0.42012 -0.224068 -0.453043 -0.77919104 0.62402575 -0.058763855
0.400401 0.281123 -0.446863 -0.92160276 0.38468997 -0.051594463
-0.24906 0.103475 -0.472851 0.35375024 0.93123357 -0.087548942
-0.0268857 -0.0459483 -0.298157 0.28538116 -0.94073388 -0.18324126
-0.305409 0.3456 -0.496415 -0.077720159 -0.28380408 0.95572738
0.486924 0.0657555 -0.492547 0.22776841 0.96268246 -0.1461644
-0.296228 0.134333 -0.403047 -0.28872513 -0.90780442 -0.3041857
-0.234617 0.400232 -0.496761 0.052889798 0.063650413 0.99656976
-0.394525 0.244401 -0.493906 -0.049222578 -0.072393042 0.99616082
0.00393675 0.0583538 -0.164124 0.066267752 0.9970492 -0.038748863
0.00590539 -0.0527688 0.157583 -0.10494331 0.98285701 0.15158827
0.0491643 -0.0691696 -0.280079 -0.10957164 0.99363308 -0.026217655
0.397816 0.278048 -0.406704 0.69457205 -0.64866689 -0.31112848
0.24643 -0.374984 -0.506015 -0.22421682 -0.13466584 -0.9651901
0.271992 -0.399986 -0.406841 -0.54055055 -0.75922208 0.36247335
0.0721121 0.00160288 -0.237898 -0.49197238 -0.055032734 -0.86886971
-0.00325429 -0.501918 -0.456713 0.14902152 0.98858172 -0.022332968
-0.445617 0.0722458 -0.39876 0.67919984 0.017969897 0.73373337
-0.486232 0.109075 -0.483051 -0.58116865 0.74953738 -0.31691752
0.413585 -0.174886 -0.493254 0.82592168 -0.31659543 0.46649835
0.330362 0.325967 -0.473309 0.1927819 -0.95582251 -0.22189742
0.0118599 -0.450872 -0.457761 0.33061372 0.93245471 0.14568042
0.11213 -0.439198 -0.495485 0.21447443 -0.48891583 0.84555427
0.296942 0.397933 -0.440151 -0.92330896 -0.34679936 0.16501746
-0.111345 -0.470608 -0.471136 -0.98200623 -0.17497983 -0.071033952
-0.23519 -0.377252 -0.483062 0.94744641 0.04171987 -0.31718252
-0.0156345 -0.0627732 -0.505885 0.52823466 -0.13530787 0.83824813
0.211788 0.399386 -0.423186 -0.86246781 -0.479792 0.1610867
0.161994 -0.184301 -0.420166 -0.82744117 -0.56152902 0.0051262267
