0.471264 -0.00390011 -0.00710189 0.0662173 -0.201899 -0.977165
-0.379094 -0.156919 0.00129974 0.149842 0.687767 0.710299
0.321466 0.0167469 -0.00892454 0.618127 -0.670386 -0.41049
-0.0240201 0.017487 -0.00250876 -0.32806 0.042951 -0.94368
0.0108217 0.209365 -0.00535226 0.0434459 0.814589 -0.578409
-0.341402 -0.153247 -0.0035606 -0.124116 -0.13764 -0.982675
0.0410624 0.400453 -0.00913113 0.0568966 0.30261 -0.951415
-0.00595838 -0.112218 -0.000917971 -0.593293 -0.366501 0.716715
0.110642 0.204181 0.0107614 0.112292 -0.417681 0.901628
-0.336865 -0.370974 -0.0159527 0.434439 -0.191048 -0.880206
0.134345 -0.0654891 -0.0144004 0.227242 -0.269225 -0.935884
0.101588 0.391961 -0.00391382 0.672063 0.653105 -0.348979
0.154374 -0.0329599 -0.0229846 0.0460567 -0.174841 -0.983519
0.408176 -0.0640532 -0.0132464 -0.0388035 -0.136187 -0.989923
0.301334 -0.121871 0.0188462 -0.0943423 -0.281203 0.955
0.0583462 0.3889 -0.0089761 -0.00929002 0.0786684 -0.996858
0.00381583 -0.131823 0.00368881 0.114179 -0.149709 0.982115
0.155373 -0.132881 0.0147055 0.0365653 0.903096 0.427879
-0.187756 -0.12708 -0.00429529 -0.134108 -0.144287 -0.980406
-0.0730919 -0.104938 -0.000351429 0.33882 -0.114812 0.93382
0.237269 -0.149904 0.00994444 -0.0300722 -0.0244905 0.999248
0.339292 -0.11681 0.00835872 0.0550134 -0.219048 0.974162
-0.0570279 -0.0608229 0.00222665 0.297662 0.193362 0.934884
-0.00655055 0.200116 0.00579619 -0.192308 0.361009 0.912519
0.302752 -0.1157 -0.00519317 0.932991 0.16544 0.319621
0.355881 0.0400712 0.013635 0.025499 -0.167025 0.985623
-0.159196 -0.20195 0.000912786 -0.0103886 -0.118976 0.992843
-0.0396808 -0.165828 0.00231409 0.105642 -0.0114851 0.994338
-0.0246212 0.00436544 0.00105876 -0.406213 -0.906131 -0.117972
0.258954 0.00121576 -0.0155891 0.308627 -0.828528 -0.467217
-0.101392 -0.164512 -0.0094716 0.235922 0.477904 -0.846137
-0.163989 -0.217582 0.0012148 0.263708 0.0925877 0.960149
0.100065 0.317331 -0.00854212 -0.657383 -0.237633 -0.715107
0.274754 -0.130064 0.00866598 0.155232 -0.0716431 0.985277
-0.062203 0.0407513 -0.0210922 0.31674 0.316591 -0.894117
0.435892 0.000103712 0.00939167 -0.241165 -0.138711 0.96052
0.143739 0.21239 -0.00797248 0.415096 0.175331 -0.892723
-0.108791 -0.153289 -0.00979578 -0.356471 -0.745438 -0.56325
-0.105933 -0.161216 -0.000372469 0.067729 0.138794 0.988002
0.428567 -0.00348055 -0.0113472 -0.686407 0.0596151 -0.72477
-0.0214818 0.196579 0.00954986 -0.0282504 -0.203269 0.978715
0.00446725 0.108467 0.0077045 -0.0255756 0.168906 0.9853
-0.186592 -0.207636 0.00321555 0.283716 0.21684 0.934069
0.0158609 0.119279 0.0189161 0.179022 0.358139 0.916344
0.0941502 0.264301 0.00839001 -0.600129 0.449192 0.66187
0.32086 0.0422587 -0.00859725 -0.0906813 -0.13814 -0.986253
-0.0515414 0.14069 -0.00397128 0.390681 0.40295 -0.827647
0.132826 -0.0209384 0.00888532 -0.471686 0.875036 0.10874
0.0909355 0.201766 -0.00989103 0.155391 -0.166381 -0.973741
0.0861551 -0.0452768 0.0034948 -0.280377 0.831445 0.479675
-0.0649546 0.0704406 -0.00988829 -0.549374 0.0807659 -0.831664
0.396672 -0.0855689 0.0112143 -0.0406307 -0.262643 0.964037
-0.0470363 0.289516 0.000368834 -0.0419754 0.998712 0.0284991
0.0694575 -0.0768511 -0.00828373 -0.0528963 0.237898 -0.969849
0.38874 0.0438331 0.0151436 -0.245206 -0.417132 0.875143
0.120555 0.226767 0.010409 -0.287751 0.215866 0.93306
0.00929254 0.12963 0.00680333 0.873502 0.24109 -0.422931
-0.230051 -0.165719 0.00883192 0.0358297 -0.220375 0.974757
0.0355388 -0.0636251 -0.00651687 0.504088 0.863644 0.00373429
-0.0434554 -0.105592 0.00386471 -0.126414 0.375093 0.918327
-0.227813 -0.180073 -0.0079664 -0.292526 -0.697021 -0.654668
0.148049 -0.177037 0.00575376 -0.30081 -0.927232 0.223055
0.0417809 -0.0541336 -0.0112884 -0.432609 0.575417 -0.694078
0.220474 -0.168675 -0.000751138 0.342161 -0.864707 -0.367707
0.220287 -0.145209 -0.0104187 0.118493 -0.363799 -0.92391
0.387412 -0.0700797 0.0174896 -0.270875 0.614083 0.741302
0.127861 0.208008 0.00725293 0.993109 -0.0981054 -0.0641027
0.386074 0.0174206 0.00525248 -0.153063 -0.980813 0.120741
0.223065 -0.137351 0.00293469 0.654237 0.747433 0.1154
0.399752 0.0636927 0.0108198 0.0680474 0.0742765 0.994913
-0.0410055 0.163216 -0.00113553 -0.965315 0.23891 -0.105308
-0.287413 -0.177772 -0.00622177 -0.202078 -0.418497 -0.885452
0.0565386 0.178051 0.00492704 0.314519 0.151252 0.937124
0.441478 -0.0269272 -0.00893301 0.0123355 -0.172551 -0.984923
0.359113 0.0685297 0.00434232 0.862837 -0.347161 0.367411
-0.0383459 0.27095 0.0099681 -0.0664961 0.229211 0.971103
0.435568 -0.0230482 -0.00890434 -0.153988 0.144801 -0.977405
-0.0630776 -0.137319 -0.00179583 0.237878 0.126394 -0.963036
0.0329834 0.41098 -0.00309825 -0.114705 0.99304 -0.0267228
-0.0658284 0.153353 0.0023194 -0.807293 -0.560117 -0.185868
0.423614 0.0592304 0.00883037 0.249969 0.21259 0.944628
0.0591426 0.162555 0.0119137 0.773981 -0.579539 0.255123
0.0432789 -0.0670984 -0.0118402 -0.239755 0.373046 -0.8963
0.0938179 -0.0626385 0.00378913 0.956611 0.286929 0.0506772
0.333082 -0.124894 0.0116473 0.0805998 -0.137151 0.987265
-0.398308 -0.164608 -0.00197023 0.139671 0.352496 -0.925332
0.00515151 -0.13297 -0.00402975 0.313 -0.0435421 -0.948755
0.0820634 0.230338 0.00976342 -0.124405 0.307636 0.943336
-0.0602309 -0.11634 0.00157487 0.285218 0.15183 0.946361
0.140397 0.328322 0.00282025 0.957737 0.275369 0.0831359
-0.401501 -0.157659 0.00596297 -0.379151 0.493028 -0.78305
0.0136036 -0.137879 -0.00878161 -0.807817 0.167994 -0.564987
-0.0237427 0.278188 -0.0058111 0.657213 -0.120185 -0.744061
0.357387 0.0711551 0.00185311 -0.285843 0.94128 -0.179684
-0.0827771 -0.072371 -0.00197637 -0.0294011 -0.166359 -0.985627
0.489397 -0.0338517 -0.0159358 -0.0159659 -0.0716467 -0.997302
-0.2515 -0.276262 0.00159454 -0.0705492 0.0071488 -0.997483
0.151474 -0.0526174 -0.0108361 0.358607 -0.35071 -0.865103
-0.0281675 0.25531 0.00945711 0.258681 0.374338 0.89048
-0.20917 -0.166585 -0.00568902 -0.153826 0.0950907 -0.983512
0.00924736 0.349101 0.0157706 0.040392 0.0291952 0.998757
0.0284297 -0.145964 -0.00870258 -0.320504 -0.539827 -0.778373
0.482155 -0.0487091 0.0105799 0.321389 -0.118159 0.939546
-0.0871019 -0.0226533 -0.00251979 -0.251564 -0.22915 -0.940322
-0.194888 -0.244901 -0.00281239 0.0681988 -0.424868 -0.902683
0.0782313 0.202603 -0.00667071 -0.148877 0.185977 -0.97121
0.0881257 0.194441 -0.00735861 0.341708 -0.727885 -0.59449
0.0918424 -0.0682292 -0.00799274 0.519828 0.0359983 -0.853512
0.0889139 0.401807 0.0015896 0.391231 0.918982 0.0491046
-0.0540472 0.039741 0.0125931 -0.0759967 -0.0494291 0.995882
-0.0152605 0.357168 -0.00618696 -0.527513 0.70028 0.480976
0.0240621 -0.0868829 -0.00342774 0.57631 -0.413725 -0.704768
0.0825317 0.198074 -0.00695419 0.161868 -0.122624 -0.979164
0.012574 -0.100866 0.00251013 -0.39984 -0.492208 0.773213
0.442724 0.00476867 0.0141276 0.0350562 0.201504 0.97886
0.0888235 -0.110194 0.0184184 0.334587 0.306342 0.891183
0.218448 0.00614643 0.010164 0.133342 0.420352 0.89751
-0.235818 -0.253206 0.000796556 -0.289309 0.288219 -0.912814
0.0874872 -0.115282 0.00866061 0.025532 0.497714 0.866965
0.488313 0.00113976 -0.0102153 0.0644041 0.161353 -0.984793
-0.179713 -0.152732 0.000501454 0.0848162 -0.15975 0.983507
0.328654 0.0226741 -0.0106074 0.105124 -0.44789 -0.887887
0.421808 -0.0653197 -0.0102897 -0.0593885 0.0893963 -0.994224
0.11628 -0.100406 -0.00387108 0.995629 0.0433622 -0.0827171
0.00756317 -0.121216 -0.00529677 -0.283678 0.0793948 -0.955627
-0.090666 -0.172002 -0.00731027 -0.510459 -0.84858 -0.139079
0.0836965 0.375006 0.00647795 -0.000780319 0.0474421 0.998874
0.103606 0.2732 -0.00750619 0.0443387 -0.546082 -0.836558
-0.124601 -0.18287 -0.00218183 0.436557 0.0681735 -0.89709
-0.287545 -0.315648 -0.00225574 0.0326037 -0.140638 -0.989524
0.278555 -0.152205 0.00499803 -0.0014685 -0.845195 0.534455
0.189392 -0.0170646 -0.00564271 0.308251 -0.208931 -0.928078
0.0808657 0.189809 -0.00797254 0.493244 -0.741917 -0.454168
-0.152232 -0.164626 -0.00762558 0.204838 -0.939051 -0.276088
-0.158339 -0.199115 0.00199026 -0.099172 -0.0496938 0.993829
-0.0794458 -0.125713 -0.00485164 0.282116 0.605143 -0.744454
0.047365 0.157631 0.00936073 0.0148225 0.0486607 0.998705
0.0422072 0.411031 0.00630641 -0.209513 0.750491 0.626791
-0.0778955 0.0459602 0.009826 -0.060733 -0.141973 0.988006
-0.0116202 0.186889 0.00984186 0.154813 0.0900955 0.983827
0.114746 0.380307 0.0109423 0.306315 -0.0341675 0.951317
-0.0684832 -0.0777 0.00246578 0.13086 0.175912 0.975669
0.0334284 -0.0679336 -0.00814474 0.0699729 0.27641 -0.958489
-0.0303231 0.328825 0.0080151 0.775079 0.0738311 0.627536
0.117192 -0.0303509 0.00951529 -0.498869 0.866204 0.0286345
-0.17376 -0.135921 0.00889063 -0.0579469 -0.475805 0.87764
-0.0205775 0.212486 -0.00506556 -0.194518 -0.267397 -0.943749
0.0731457 0.217215 0.0118275 -0.019693 -0.284911 0.958352
-0.473268 -0.171695 -0.00267202 -0.338271 -0.0595115 -0.939165
0.0837641 0.382914 0.00168055 0.829553 0.391866 0.397847
-0.0554443 0.0833597 -0.00987828 0.100189 -0.139246 -0.985176
-0.0832091 -0.118923 -0.00368947 -0.0765078 -0.565752 -0.821018
-0.103388 -0.147505 0.00215971 0.17101 -0.194581 0.965864
-0.0666731 0.153291 -0.00330424 -0.187172 -0.648503 -0.737842
-0.0982743 -0.157281 -0.00460541 -0.631549 -0.604278 -0.485792
0.0152376 0.134871 0.0166239 -0.0791303 -0.0411322 0.996015
0.059673 0.381114 -0.00998968 0.22443 -0.116812 -0.967464
0.345292 0.0316797 0.00886083 0.149359 0.0175838 0.988627
0.372182 0.0607561 0.0128998 -0.11901 0.0831434 0.989406
-0.0616308 0.256469 0.00514495 -0.948154 0.31478 -0.0437898
0.229681 -0.160963 0.00551862 0.706047 -0.692173 0.149646
0.101309 -0.0639652 -0.00173539 -0.172387 -0.939396 -0.29634
-0.359061 -0.148832 -0.000983715 0.217653 0.311295 0.925053
-0.0794741 0.132866 0.0157384 -0.143411 -0.0544056 0.988167
0.0778379 0.250883 0.0017001 -0.856485 0.511148 -0.0718428
0.398464 -0.0829096 0.0131302 -0.145902 -0.166884 0.975122
-0.147354 -0.204968 0.000172079 0.142652 -0.257568 -0.955672
-0.0468823 0.139431 0.00989985 0.225044 -0.378558 0.897802
0.040262 -0.0801189 0.00745398 0.155872 0.422214 0.892994
-0.012049 -0.14915 -0.00513566 0.251578 -0.358391 -0.899035
0.101982 -0.104527 0.00926244 0.204057 -0.220703 0.953756
0.136072 0.31738 0.014575 -0.0214428 0.160637 0.986781
-0.0664062 0.228586 0.00909382 -0.675921 -0.0718586 0.733462
0.437546 -0.0696107 0.00941414 -0.184406 -0.0549428 0.981313
-0.0638097 -0.0382968 -0.00583088 0.424293 0.0567833 -0.903743
-0.00699389 0.3206 -0.000431836 0.896893 -0.17068 -0.407985
-0.00789988 0.19112 -0.0175286 0.0746397 -0.422398 -0.903332
0.130386 0.210753 0.0111222 0.232229 -0.0577793 0.970944
-0.0959549 0.0491008 -0.00851375 -0.747638 -0.380628 -0.544206
0.0116198 0.11494 -0.010559 0.00198344 -0.170902 -0.985286
0.0179418 -0.0731523 0.00992465 -0.24159 0.300576 0.922653
0.132853 0.337616 0.00982738 0.398705 0.237259 0.885857
-0.0550644 0.251179 0.0147129 -0.438863 -0.137184 0.88802
-0.0800235 -0.0281324 0.00327939 -0.0283497 -0.559978 0.828022
0.0508376 0.223478 -0.00652778 -0.676723 0.699872 -0.228528
0.000611126 -0.0750282 -0.00511158 -0.734719 0.657456 0.167152
-0.0739273 -0.0486772 -0.0015626 -0.550511 0.124143 0.825546
0.346611 0.0498149 -0.0109909 -0.236354 0.00286994 -0.971663
0.112902 0.330785 -0.00661838 0.0892042 0.0937776 -0.991589
0.200571 -0.152642 -0.0155196 0.188818 0.1578 -0.969251
0.0397764 0.409109 0.00968575 0.0157903 0.625697 0.779907
-0.024648 0.248996 -0.000281811 0.968946 0.0831304 -0.23288
0.202305 -0.0244622 -0.0141192 0.328806 -0.944378 -0.00601106
0.37656 -0.0700516 0.00484204 -0.621704 0.765314 -0.166673
-0.11476 -0.119575 -0.00854468 -0.781416 -0.617925 -0.0869334
-0.0142565 0.27004 -0.00591987 0.959934 -0.200301 -0.195977
-0.0317781 0.259675 0.0107424 0.330781 -0.264606 0.905852
0.0388229 -0.0702075 -0.0141056 -0.111157 -0.0791862 -0.990643
-0.0563513 -0.108163 0.00275612 0.814336 -0.578901 0.0415994
-0.0176356 -0.156571 -0.00387591 0.130917 0.0131267 -0.991306
0.0427711 -0.116101 0.0134667 -0.0190723 -0.178413 0.983771
0.186788 -0.0166402 -0.00639552 0.51655 0.465719 0.718528
0.0305961 0.355685 -0.00523227 0.429159 -0.851257 -0.301966
0.377322 -0.100603 -0.0108622 -0.0128691 -0.0224941 -0.999664
0.0696498 -0.147098 0.0040862 0.895809 -0.443976 0.0202727
0.130123 -0.161602 -0.0221179 -0.626868 -0.00887059 -0.779075
0.135736 -0.0507039 0.00393665 0.645379 -0.390402 0.656561
0.0503274 -0.116772 -0.0055297 -0.0467599 -0.859706 -0.508644
-0.0916289 -0.100159 -0.00246036 0.0135753 0.0230663 -0.999642
-0.0731276 0.122937 0.00696748 -0.35456 0.28409 0.890831
-0.0441349 0.0159178 -0.000621259 -0.584953 -0.691635 -0.423639
0.48297 -0.03625 -0.00974125 -0.0132717 0.0463007 -0.998839
0.31129 -0.128926 0.00451785 -0.306263 -0.594716 0.743314
-0.168212 -0.12795 0.00047487 0.157359 -0.0840912 0.983955
-0.0325341 0.144546 -0.012251 0.374735 -0.0534318 -0.925591
0.0819889 -0.168496 0.00754195 -0.135732 -0.0193842 0.990556
0.274273 0.00491512 -0.00567734 0.224776 -0.931541 -0.285846
0.059011 -0.0961951 -0.00980437 -0.230361 -0.000804779 -0.973105
-0.075069 0.148907 0.00926739 -0.49799 0.0283515 0.866719
0.0234185 -0.0650191 0.00303817 -0.372855 0.918454 0.131987
-0.0345337 0.149654 -0.00808525 -0.0692314 -0.0126823 -0.99752
0.0227355 0.363596 -0.0119711 -0.0683713 -0.0938784 -0.993233
0.0554573 0.368999 -0.00643528 -0.19679 -0.785189 -0.587156
-0.054606 0.094269 -0.00111645 -0.553881 0.793571 -0.251914
0.392303 0.0595601 -0.0227344 0.128772 -0.709538 -0.692801
0.123249 -0.0471324 -0.00843239 -0.3417 0.106868 -0.933713
-0.00923353 0.31477 0.00849664 0.800064 -0.183298 0.571226
0.240124 -0.131073 -0.00593072 -0.133181 0.804632 -0.578645
0.465403 -0.000307083 -0.0114818 0.0494656 -0.136095 -0.98946
0.167425 -0.172243 -0.00949228 0.177593 -0.983511 -0.0341499
-0.0716754 -0.143844 5.57899e-05 -0.100137 -0.18201 0.978185
0.000855565 0.169319 -0.00471324 -0.0132424 0.232067 -0.97261
0.344966 0.0683887 0.00359666 -0.310193 0.950407 0.0225337
0.249531 -0.168521 0.00667453 0.293515 -0.951803 0.0889912
0.00844008 -0.143282 0.00784683 -0.059355 0.11247 0.991881
0.300884 0.0224954 0.0055927 0.84685 -0.480317 -0.228342
0.501761 -0.0583404 -0.00690967 0.875288 -0.422572 0.235166
-0.0541621 -0.0519055 0.0131636 0.821938 -0.489038 0.291993
0.131129 -0.0745672 -0.00478119 0.751071 -0.638448 -0.168156
0.357687 -0.0854621 0.00590318 -0.437809 0.858263 0.267783
-0.00355154 -0.101828 0.00233728 0.204279 0.0626 0.976909
0.0494848 0.364848 0.0130216 0.327502 -0.734581 0.594251
0.285423 0.0327965 0.0118914 -0.0248851 0.239833 0.970495
0.264837 -0.142224 0.00366569 0.97767 -0.208949 0.0223953
-0.0150821 -0.165162 0.000826716 -0.178087 -0.526548 -0.831283
0.369787 -0.117131 -0.0146855 0.26003 -0.144075 -0.954791
0.287219 -0.115909 -0.00403857 -0.0308984 0.960675 -0.275952
0.350122 0.0718795 -0.00814486 -0.229845 0.973211 0.00561845
-0.189643 -0.167028 -0.000460446 0.142322 -0.298129 0.943856
-0.0312397 0.219301 0.00701731 -0.299644 0.111594 0.947502
0.455072 -0.0796217 0.00488067 -0.208041 -0.0116114 -0.978051
-0.0561904 0.243595 0.0134995 -0.498252 0.0429037 0.86597
-0.00104362 0.087513 0.00964397 0.0206106 -0.0408763 0.998952
-0.252887 -0.163551 1.52588e-05 -0.237661 -0.230938 -0.943496
-0.215495 -0.243682 -0.00501561 0.0689695 0.3181 -0.945545
0.356941 0.0281276 0.0110847 -0.0226057 0.000263265 0.999744
-0.0614516 -0.0750954 -0.0145139 0.256963 -0.247779 -0.934117
-0.0335605 0.336174 0.00838345 0.138494 -0.0888818 0.986367
0.138423 0.311891 -0.0032742 0.642236 0.021251 -0.766212
0.39472 -0.113424 -0.0018332 0.374791 -0.926913 -0.0190615
-0.133865 -0.129515 -0.00588387 -0.240534 0.308732 -0.920232
0.311586 0.050761 0.0161402 0.0521371 0.169531 0.984145
0.472458 -0.0285733 0.00969058 0.33354 -0.614071 0.71531
-0.0653234 -0.0544906 -0.000342488 -0.161071 0.378793 -0.911357
-0.105969 -0.148769 -0.000824094 0.0220758 -0.364028 -0.931126
6.8903e-05 0.0699651 -0.00466782 -0.24778 -0.812467 0.527734
0.277537 -0.141417 0.0100297 0.0671265 0.0165941 0.997606
-0.0793262 -0.0417097 -0.00427192 0.0641057 0.135611 -0.988686
0.0243358 0.114676 0.0132108 0.492536 0.0576305 0.868382
0.485366 -0.000432491 0.0110556 -0.107715 -0.153397 0.982276
0.325579 -0.14175 -0.00388646 0.0703305 -0.985687 0.153217
-0.42301 -0.181362 0.00280273 -0.165339 -0.0120052 0.986164
0.0724964 0.369513 -0.00797933 0.126106 0.956957 -0.261402
-0.414348 -0.183826 -0.00130558 0.0016037 -0.224621 -0.974445
-0.015473 0.036774 -0.00644505 0.083085 0.0126378 -0.996462
0.0484117 -0.0699118 -0.013059 -0.431608 -0.302052 -0.849988
0.400997 0.0453234 -0.00357789 -0.717872 0.653957 -0.238747
0.43355 -0.0539095 -0.0202482 -0.137787 -0.285595 -0.948393
-0.0303364 0.376604 0.00772929 -0.617494 0.538649 0.5732
0.213357 -0.0172141 0.00653946 0.106196 -0.9928 0.055419
-0.100601 -0.0606082 0.000993788 -0.58527 0.132388 -0.799958
-0.195156 -0.240156 0.00750959 0.0139715 0.106919 0.99417
-0.438237 -0.167533 -0.000541687 -0.0157462 0.111215 -0.993672
-0.0237032 0.208352 0.00623387 0.578608 0.71351 0.395115
-0.162663 -0.139631 -0.0031454 0.027885 -0.064262 -0.997543
0.0623947 -0.0506009 -0.0110944 -0.0751436 0.318643 -0.944892
0.151966 -0.0210025 -0.00899231 -0.098034 0.0266346 -0.994827
-0.0502234 0.28092 -0.00432807 -0.689449 0.140323 -0.710612
0.0902272 -0.120872 -0.0077439 -0.0251851 0.217347 -0.975769
-0.0324759 -0.114738 -0.00215822 -0.148369 -0.053613 -0.987478
0.405488 0.0820063 -0.010334 -0.0978486 0.73476 0.671233
-0.185226 -0.21748 0.00228781 -0.100473 -0.518113 0.84939
0.0948681 -0.155477 -0.000946641 0.916429 -0.400185 0.0032462
0.0955124 0.204806 -0.00120878 0.810892 0.155308 -0.564211
0.110205 0.346651 -0.00608575 -0.165228 0.240074 -0.95659
-0.0262001 0.257613 0.00389564 0.954705 0.097491 0.281131
-0.0377811 0.144434 -0.00992787 0.249022 -0.148659 -0.957021
-0.175406 -0.134431 0.00200492 -0.228887 0.243087 -0.942613
0.247177 -0.135029 0.00212556 0.406889 0.748255 0.523981
0.48907 -0.0197237 -0.0156876 -0.00100814 0.0108119 -0.999941
0.0315427 -0.0622719 -0.00509351 -0.323158 0.911823 -0.253273
-0.419491 -0.165901 0.00299275 0.301815 0.107113 0.94733
-0.0676459 -0.15143 -0.00157279 0.313893 0.356302 -0.880068
0.123207 -0.0713946 -0.00985342 0.156815 -0.0785618 -0.984498
-0.0927978 -0.055852 0.000659823 -0.0382653 0.3045 0.951743
0.322346 -0.102515 -0.00551391 -0.347821 0.888176 -0.300273
0.11637 -0.0270552 0.00328439 -0.436058 0.899904 0.00519498
0.372845 0.0586721 -0.00963354 -0.376492 0.0430905 -0.925417
-0.00262976 0.101402 0.0179424 0.400762 -0.146991 0.904314
-0.0530276 0.260064 0.00169569 -0.907072 -0.417376 -0.0549376
-0.0266007 0.115871 0.000241339 0.438584 0.897962 0.0361833
0.137443 0.233853 -0.0016517 -0.0985486 0.357472 -0.92871
0.383368 0.0227047 -0.011376 -0.0481344 0.12015 -0.991588
-0.0700379 -0.126206 -0.00221306 -0.478578 0.236969 -0.845463
-0.0395796 -0.151243 0.00237304 -0.0615381 0.132218 0.989309
-0.124053 -0.139542 0.0139523 -0.43553 0.0997546 0.89463
0.0550142 0.371858 0.00833142 -0.110092 -0.378628 0.918978
-0.0817367 -0.0661806 -0.000848114 -0.0838575 0.092402 -0.992184
0.199905 -0.148145 -0.0125047 0.196274 0.108086 -0.974574
0.219802 -0.155451 0.00889415 -0.20269 -0.00949786 0.979197
0.358681 0.0598032 0.0138417 -0.0467008 0.169044 0.984501
0.0927774 -0.0493422 -0.0115209 -0.232873 -0.068228 -0.970111
0.401625 -0.0907302 0.00839442 0.0830042 -0.187522 0.978747
0.314291 0.0518056 0.00574183 -0.741374 0.406885 0.533675
0.0762476 -0.129044 0.015778 -0.0431736 0.0567718 0.997453
-0.114698 -0.14262 -0.00581568 -0.725883 -0.0983566 -0.68075
0.404566 0.0642269 -0.0119973 0.0119832 0.297347 -0.954694
-0.0495894 0.215649 0.00914866 -0.0851936 -0.21152 0.973654
-0.15212 -0.159417 -0.00278759 -0.0231332 0.083279 -0.996258
-0.0826218 -0.0262048 -0.000487208 -0.261919 -0.703842 -0.660307
0.127356 -0.0694087 -0.00903457 0.350055 -0.155644 -0.923708
0.140825 0.195569 0.00513762 -0.227022 -0.972683 -0.048469
-0.0594952 -0.0777424 0.00100529 0.235557 0.0642954 0.969732
0.0248961 0.0933538 0.0119914 0.0624026 -0.0549991 0.996535
0.184788 -0.167226 0.00147557 -0.543641 -0.814446 0.202811
0.459339 -0.035547 0.0098533 0.0375167 0.160038 0.986398
0.494892 0.0151173 5.45979e-05 0.898824 0.411907 0.149827
0.177138 -0.00175416 -0.0114187 -0.187736 0.0271848 -0.981843
-0.0533312 0.0579294 0.00504118 -0.267046 0.614966 0.741959
-0.0218546 0.0562564 -0.0165683 -0.257328 0.215138 -0.942071
0.363097 -0.0818081 -0.00500816 -0.618616 0.784816 0.0371285
0.289877 -0.150213 -3.88026e-05 0.0386246 -0.999026 0.0213167
-0.122435 -0.171655 -0.0120109 0.237579 0.0841293 -0.967718
-0.357514 -0.386536 -0.00351709 -0.0827306 0.00762861 -0.996543
0.317083 -0.139338 -0.01331 0.0361096 -0.78156 -0.622784
-0.0869871 -0.12625 -0.00514901 0.438913 0.565975 -0.697874
0.439049 0.0688286 0.00796747 0.163729 0.736827 0.655957
0.124085 -0.0567147 0.00931495 -0.0708372 0.226122 0.97152
-0.202708 -0.227176 -0.000352561 -0.0600859 0.0493198 0.996974
0.0386172 -0.158199 -0.00751293 -0.296524 -0.443848 -0.84562
0.323514 -0.138687 0.00353444 0.237842 -0.969751 0.0549042
-0.0123841 0.166174 0.00756121 0.143133 -0.175505 0.974018
-0.0415754 -0.113686 -0.00493568 0.399573 -0.615103 -0.679698
-0.0928366 0.0686676 0.00496179 -0.986593 0.161507 0.0234347
-0.00889486 0.129518 -0.0135021 -0.0932926 -0.0213697 -0.995409
0.403872 -0.0672737 -0.00801778 -0.218433 -0.195152 -0.95614
0.0401411 0.409044 0.0013206 -0.311585 0.944157 -0.107156
0.0770077 -0.0437038 0.0147783 0.285468 0.369014 0.884498
0.409691 0.0236159 -0.00408465 0.91825 -0.129139 -0.374353
0.191918 -0.0282347 0.0130969 -0.00786979 -0.42147 0.906808
0.0653569 0.196592 -0.00749785 0.0388561 0.0992122 -0.994307
-0.290261 -0.316619 0.00611824 -0.469675 0.460131 0.753449
-0.22538 -0.282358 -0.00173116 -0.132009 -0.238782 -0.962058
-0.0469215 0.159563 -0.00692117 0.0336577 0.101529 -0.994263
0.100495 -0.0837857 -0.00992441 0.0350644 0.047337 -0.998263
-0.0449306 0.286421 -0.00503838 -0.0592537 0.134027 -0.989205
-0.261446 -0.285637 0.00082165 -0.10424 -0.112555 -0.988163
-0.0349044 -0.137713 -0.00275433 0.169489 0.0478346 -0.98437
0.0556414 0.408982 -0.000213325 0.209078 0.946107 -0.24732
0.144063 0.206136 0.00332391 0.917958 0.394302 0.0433568
-0.0631512 -0.0333023 -0.0011242 0.0576808 0.401007 -0.914257
0.399889 0.0322148 -0.0180573 -0.0834545 -0.0237881 -0.996228
-0.201753 -0.265842 -0.00026536 -0.0127965 -0.465268 -0.885077
-0.0582956 -0.00957561 -0.00301713 -0.243707 0.0329127 -0.96929
-0.0350735 -0.0107086 0.00245744 0.640381 -0.42035 -0.64282
-0.378492 -0.178699 0.00137889 -0.102389 0.0729793 0.992064
0.449426 -0.0130454 -0.00732809 -0.162595 0.0474296 -0.985552
0.389108 -0.118407 -0.00528157 0.406746 -0.911368 -0.0629795
0.0973718 -0.106552 -0.0104505 0.0114484 0.0504514 -0.998661
0.144183 -0.131124 -0.000829399 0.1559 0.983074 -0.0962289
0.116832 0.315859 0.00968742 -0.214103 -0.189718 0.95821
0.0209458 -0.119661 0.0104067 -0.396322 -0.131527 0.908642
0.111224 0.346968 0.00997567 0.107442 -0.0295014 0.993774
0.102708 -0.0879813 -0.00818557 -0.329897 -0.352515 -0.875729
0.18199 -0.0198814 -0.0142398 -0.316701 0.360788 -0.87723
0.122702 -0.0854647 0.000773072 0.706416 -0.656365 0.264878
0.062883 -0.12272 -0.00538111 -0.399346 0.0672598 -0.91433
-0.0140553 0.328518 0.00711733 -0.308107 -0.33303 0.891157
-0.0488642 0.287687 -0.00733858 0.0656933 0.19184 -0.979225
0.318238 -0.125162 -0.0112538 0.0201255 0.0209847 -0.999577
0.076308 -0.124033 -0.00781035 -0.00207013 -0.0861752 -0.996278
0.155008 0.269182 -0.00718904 0.708897 0.163125 -0.686189
0.401535 -0.0569756 -0.00626808 -0.535962 0.699047 -0.473369
0.0672059 -0.0920126 0.0120533 0.0405205 0.0398782 0.998383
-0.0357674 0.143077 0.0167587 0.626141 0.0646129 0.777028
0.0173891 0.0591096 0.0151281 0.658395 -0.331867 0.675559
-0.319622 -0.151605 -0.00589025 -0.358942 -0.607538 -0.708561
0.100498 0.315474 0.00344694 -0.99398 -0.0980472 0.0488841
-0.000915229 -0.0756392 -0.00670904 -0.731897 0.653984 0.191395
-0.0909667 -0.159722 0.00309521 0.359447 -0.41741 0.834606
0.0895151 -0.0910756 0.00862324 0.0314427 -0.0759753 0.996614
0.254003 -0.122955 0.00481373 -0.00815128 0.97216 0.234177
-0.199673 -0.245173 0.000507593 -0.0650638 -0.297666 -0.95245
0.0403957 0.360966 -0.000785708 0.175271 -0.973161 -0.149123
0.295 0.0449677 0.00174123 -0.359124 0.910305 0.20585
0.0352982 0.37075 -0.00731808 -0.0971999 -0.0319954 -0.99475
0.0768741 0.243286 0.00882059 -0.551077 0.428737 0.715891
-0.0518205 0.316295 -0.0116607 -0.972296 0.202933 -0.116011
0.433471 0.065702 -0.0100277 0.144171 0.181546 -0.972757
0.386288 -0.0832185 -0.00924826 0.0269906 0.104823 -0.994125
0.350217 -0.124422 0.00675893 -0.261509 -0.591466 0.762746
-0.0641859 0.080135 0.00477815 0.0682449 0.155295 -0.985508
-0.0760564 0.214428 -0.0005849 -0.792395 0.201499 0.575767
-0.0961615 -0.180551 -0.00276589 0.127337 -0.0234333 -0.991583
-0.302534 -0.149076 -0.00216782 -0.176797 0.128304 -0.975849
-0.0937553 -0.167714 -0.00582635 0.580215 -0.80897 -0.0944376
-0.0589526 0.0765027 -0.0121786 0.179521 0.129862 -0.975145
0.0590896 0.168816 0.0135735 0.390751 -0.244724 0.887369
0.384126 -0.0682647 -0.00244296 -0.58611 0.794078 -0.160982
0.0605038 -0.141816 -0.0131556 0.214577 0.108211 -0.970694
0.494216 -0.00874877 -0.0135497 0.245356 -0.220049 -0.944129
-0.0120003 0.323263 0.0092786 0.182764 -0.299838 0.93632
-0.0710983 0.150464 0.0056724 -0.357125 -0.404674 0.841844
0.133318 0.200284 0.00383264 0.231528 0.953077 -0.195036
-0.0666518 0.134978 -0.00663877 0.105473 0.044074 -0.993445
-0.0619633 0.171624 -0.00380266 -0.337569 -0.403285 -0.850534
-0.0948438 -0.153462 -0.000592291 0.187619 -0.0432281 0.98129
0.450979 0.00936967 0.0115678 -0.0135213 -0.166938 0.985875
-0.0811097 -0.130006 0.000950277 0.34334 0.0334154 0.938617
-0.0478042 0.287958 0.0124362 -0.163518 0.066943 0.984266
-0.310223 -0.149219 -0.00152296 -0.239222 -0.160381 -0.957628
-0.185229 -0.187783 -0.00109518 -0.0673048 -0.0138531 -0.997636
0.474201 -0.0213106 0.00901997 0.0335027 -0.117997 0.992449
-0.264651 -0.312885 0.00278461 0.62731 -0.0452189 0.777456
-0.0379354 0.0624292 -2.21729e-05 -0.744482 0.647766 -0.161697
0.20531 -0.132175 -0.00686544 -0.0929181 0.936347 -0.338555
-0.245117 -0.283476 0.00754452 -0.0190013 0.565422 0.824583
-0.220738 -0.24466 0.00123364 -0.132521 0.199497 0.970896
0.455427 0.0593129 0.00715053 0.378582 0.842572 0.383077
0.467152 -0.0264562 0.0133193 0.0507448 -0.311705 0.948823
-0.0654118 0.144485 0.00972563 -0.202343 0.460526 0.864276
0.0348729 0.132841 0.0104799 0.0535894 0.0605466 0.996726
0.406709 -0.0907682 0.0089311 -0.0311244 0.0162205 0.999384
0.084967 -0.0833982 0.00777459 0.15038 0.0839907 0.985054
0.0731506 0.407095 0.0014053 0.165197 0.985079 0.0482549
-0.368394 -0.187397 -0.00124633 0.0608927 -0.297014 0.95293
-0.0864286 -0.0145938 0.00378042 -0.190388 -0.0515988 0.980352
-0.259249 -0.165824 0.00345147 -0.128192 0.585791 0.80026
0.151615 -0.0250286 -0.00720483 0.0327166 -0.135081 -0.990294
-0.0635479 0.0529514 0.00909686 0.0396995 0.123826 0.99151
0.424962 -0.0470219 0.0140703 0.237402 0.0231737 0.971135
-0.354789 -0.387651 0.00022006 0.0449283 -0.0945161 -0.994509
0.0310546 0.373016 0.00978893 0.343988 -0.2915 0.892581
-0.372608 -0.182535 0.00012064 -0.0380409 -0.15095 -0.987809
-0.057682 0.182973 0.00859648 0.143624 -0.0563097 0.988029
0.252745 0.0245006 0.00675571 -0.550015 0.492127 0.674754
-0.0613037 -0.0892279 0.000664353 -0.0439874 0.157615 -0.98652
-0.0349329 0.350608 -0.00627035 -0.0411153 -0.0146431 -0.999047
0.070698 0.386601 0.00793386 -0.259902 0.196389 0.945453
-0.473943 -0.168633 -0.00115198 -0.0460267 -0.423821 -0.904576
-0.234098 -0.299392 0.000771403 -0.00432287 -0.253354 -0.967364
0.10215 0.335982 -0.00737196 -0.228717 -0.0236389 -0.973206
-0.126421 -0.143903 -0.00304574 -0.767329 0.12907 0.62813
-0.0512347 0.317255 0.00596362 -0.961769 -0.0109666 0.273643
-0.151333 -0.174373 0.000737369 -0.0238669 -0.186138 0.982234
0.00222385 0.0520626 0.00659955 0.0569243 0.0430412 0.99745
-0.145255 -0.14448 -0.00023663 -0.000176797 0.0257921 -0.999667
0.0273305 0.162667 0.00657392 -0.408199 -0.134329 0.902956
0.364623 -0.11029 0.00925028 -0.0520502 0.00257509 0.998641
0.131652 -0.172132 0.0136895 -0.627936 -0.496976 0.598925
-0.00209898 0.337843 0.00128776 -0.10454 0.979484 -0.172288
-0.464027 -0.182683 -0.00411516 -0.110641 -0.331605 0.936908
-0.183974 -0.245728 0.00165695 -0.220617 -0.24003 0.945364
-0.0330232 -0.120908 -0.000164688 0.342148 0.00624755 0.939625
-0.110448 -0.121365 0.00641292 -0.939982 -0.110239 0.322927
0.00619543 0.351214 0.00988251 -0.24819 -0.147635 0.957395
0.017729 0.0695562 -0.00167966 0.852754 -0.320909 -0.412102
-0.0604154 -0.169635 -0.00606465 0.129415 0.137806 -0.981968
-0.0199112 0.0428972 0.0128618 0.205259 0.207211 0.956521
0.0948491 0.343731 -0.00740081 -0.50524 -0.157884 -0.848413
0.306288 0.0201886 0.0116875 0.131389 0.222699 0.965993
0.000665605 -0.0796399 -0.0110869 -0.739637 0.233328 -0.631265
0.324347 -0.136024 -0.00974518 0.187598 -0.274016 -0.943251
0.0422853 -0.0659701 -0.00512797 -0.905506 -0.353012 0.23546
-0.0324655 0.246433 -0.00691175 0.180964 0.258775 -0.948835
-0.0295739 0.274245 0.0063073 0.254755 0.309152 0.916256
-0.190657 -0.255738 0.00352532 0.0140672 0.104908 0.994382
0.0319512 0.409044 -0.00547975 -0.233548 0.928329 0.289241
0.00278038 0.0634265 -0.0123668 -0.0425199 -0.0229675 -0.998832
-0.169635 -0.179836 -2.18749e-05 -0.402919 0.542759 0.736933
-0.108775 -0.171932 -0.00817674 -0.0910597 -0.262477 -0.960632
-0.459959 -0.172879 0.0116432 0.079797 0.209414 0.974566
-0.0814272 -0.101924 0.000972807 -0.125107 -0.0585446 0.990414
0.105679 0.223232 0.013282 0.0781495 0.405262 0.910854
0.437576 -0.0043422 0.00896299 0.0650416 0.217427 0.973907
-0.0919307 0.0582072 -0.00831449 -0.552097 -0.255432 -0.793689
-0.0500529 0.176988 0.0107182 -0.0465124 0.131946 0.990165
-0.415115 -0.181116 -0.000599563 0.00160394 0.14379 0.989607
-0.0742885 0.187061 0.0141929 -0.488308 0.0405223 0.87173
-0.155125 -0.169734 0.000388265 0.0697856 -0.530581 0.844756
-0.0736091 0.03721 0.0118322 -0.275537 -0.259392 0.925632
0.293884 -0.114712 -0.0133799 0.127543 0.939936 -0.316628
0.152388 0.232316 0.0103852 -0.10102 -0.0131175 0.994798
-0.163938 -0.192788 0.00407672 0.444969 -0.272196 0.853177
-0.0945863 -0.161587 -0.000145674 -0.287559 -0.253183 -0.923693
-0.305377 -0.159689 0.00055337 0.351996 -0.266936 0.897131
-0.200038 -0.25267 0.00436789 -0.0996128 0.220987 0.970176
-0.0357207 -0.121849 -0.0155327 -0.164442 -0.623387 -0.764426
-0.380441 -0.185021 -0.00364029 0.00832201 -0.0223372 -0.999716
-0.0751359 -0.164619 -0.00828999 -0.792627 -0.586249 0.167494
0.46336 -0.0285391 -0.0098725 0.0902944 0.0749514 -0.993091
-0.0114449 0.324072 -0.00411808 0.787641 -0.0332521 -0.615236
-0.0777841 -0.0603703 0.0127293 0.430552 -0.383514 0.817033
0.427243 0.0216144 -0.00590318 0.636938 -0.768946 0.0550687
0.18787 -0.0130066 -0.00501889 -0.0308213 -0.0299829 -0.999075
-0.457119 -0.171306 -0.00272828 -0.264544 0.0480613 -0.963175
0.0660691 -0.08525 -0.0075801 -0.251527 0.189824 -0.949053
0.08018 -0.15207 -0.0142711 -0.0747001 0.0513765 -0.995882
-0.234633 -0.152731 0.000389636 0.0232059 -0.0626828 -0.997764
-0.385247 -0.180383 -0.00265139 -0.0180032 -0.214899 -0.97647
0.107935 -0.0307452 -0.0037275 -0.672502 0.703488 -0.229881
0.199215 -0.0225788 -0.015462 -0.469361 -0.0928855 -0.878107
-0.0356727 0.381147 -0.000254452 -0.559391 0.827731 -0.0440846
-0.188892 -0.171874 -0.0142596 -0.170978 0.168854 -0.970698
-0.0151049 -0.142658 -0.000209093 0.0578942 0.117582 0.991374
-0.232189 -0.294203 -0.000774741 -0.239923 -0.11134 -0.964386
0.193555 -0.00171834 0.00751251 0.339859 0.643529 0.685833
0.422729 -0.1012 -0.00677294 0.195631 -0.974838 -0.106863
0.116986 -0.0999606 -0.00663745 0.964878 0.112533 -0.237376
-0.036382 0.177944 0.00389791 -0.479726 0.812942 -0.330134
0.00381804 0.0933987 -0.0152073 0.2109 0.112995 -0.970955
0.00577444 0.207926 0.00147384 0.124223 0.99211 0.0169489
0.20911 0.00666982 0.00728405 0.399642 0.107446 0.910352
0.47696 0.0628541 -0.00414467 0.282512 0.744533 0.604862
-0.154215 -0.188722 -0.00862801 -0.306158 -0.921388 -0.239399
-0.126138 -0.174198 -4.10676e-05 -0.0563386 0.00915207 -0.99837
0.1427 0.211846 -0.0159367 0.0694473 0.0621428 -0.995648
0.396078 0.0473218 -0.00659668 0.0575637 0.224323 -0.972813
-0.0122111 -0.123249 -0.00453722 -0.231546 -0.161955 -0.959248
0.259882 0.00999796 0.0158437 -0.0446598 -0.184601 0.981798
0.312853 -0.123354 0.0096001 0.141578 -0.0914409 0.985695
0.0878868 0.240209 0.0093348 -0.233816 -0.0557951 0.970679
-0.107646 -0.165216 0.00794393 -0.00707681 -0.124733 0.992165
-0.480153 -0.175679 -0.000229537 -0.140529 0.24944 -0.95814
0.0179407 -0.114987 0.00918663 -0.552283 -0.241704 0.797849
0.0652174 0.22576 0.00968701 -0.0648545 0.501102 0.862955
0.325929 -0.101949 0.00355333 -0.398585 0.871868 0.284563
-0.0261625 0.301481 -0.010507 -0.0405928 0.141681 -0.98908
-0.0361972 0.165399 -0.00921983 -0.00906423 0.0404963 -0.999139
-0.196489 -0.273464 0.00119203 0.00494487 -0.0535057 0.998555
-0.0769962 0.0477783 0.00862116 -0.0486629 -0.308324 0.950036
-0.0235955 0.383231 0.00977492 -0.371534 0.490035 0.788561
-0.0220035 0.304812 0.00184786 0.568512 0.821478 0.044353
-0.0386633 0.285723 -0.00609452 0.204715 0.28513 -0.936372
-0.0734997 0.0251469 0.00286859 0.2291 -0.293885 0.927979
-0.0570776 -0.109078 -0.000584543 -0.556744 0.302245 -0.773747
-0.120693 -0.117361 0.000402689 -0.171723 0.278186 -0.945052
0.0286729 0.406559 0.00979471 0.184597 0.44378 0.876917
-0.118123 -0.136923 0.00177038 0.650447 0.282309 0.705139
0.0676386 -0.127007 -0.00225812 -0.0102215 -0.977936 0.208656
-0.033493 0.203654 0.00396979 -0.945991 0.246687 -0.210349
0.0691493 -0.154447 -0.00635898 -0.358715 -0.604976 -0.710864
-0.0627581 0.107183 0.00773299 -0.0447584 0.131686 0.99028
0.102393 0.341666 -7.64728e-05 -0.213679 0.976831 0.0119728
0.112992 0.343863 -0.00530398 -0.209919 0.48993 -0.84611
0.000445426 0.14721 -0.010265 0.29997 -0.0217944 -0.9537
0.0267668 -0.140282 -0.000887692 -0.725603 -0.614066 -0.310521
-0.00956297 0.0706622 -0.0105805 -0.1307 -0.0645894 -0.989316
0.123896 0.356355 0.0110636 -0.209983 0.196721 0.95771
0.365019 0.0706679 0.000370383 -0.509852 0.855951 0.0860187
-0.0909352 -0.14316 -0.00599647 -0.711881 -0.640394 0.288308
-0.0447808 -0.0383694 -0.00142759 0.464853 -0.16261 0.870327
-0.334003 -0.1541 0.00591493 -0.134198 -0.0455858 0.989905
0.249509 -0.13231 -0.0102544 -0.0255045 0.323407 -0.945916
-0.398805 -0.183956 -0.00580484 0.201655 0.140832 -0.969279
0.0582418 0.223371 -0.000862718 -0.666961 0.745077 0.00479122
-0.0226904 0.384734 -0.00623524 -0.619591 0.657128 -0.42929
0.000583291 -0.138556 0.00110221 -0.162117 -0.0154998 0.98665
-0.00896698 0.315153 0.00598192 0.881659 -0.383297 0.275247
-0.230419 -0.171812 0.00298691 0.0956875 -0.282337 0.954531
0.275185 -0.133303 -0.0083431 0.0344133 -0.0154699 -0.999288
0.0181915 0.371945 -0.00423908 -0.180577 0.074988 -0.980698
-0.0524513 -0.0456126 0.000297368 0.287288 0.18372 -0.94006
0.156841 0.269898 -0.00127077 0.972677 -0.208925 -0.101237
-0.179008 -0.167091 -0.00800043 0.273984 -0.142238 -0.951158
0.246516 0.00321096 -0.0134473 -0.0754104 -0.143408 -0.986786
-0.238912 -0.150372 0.00537431 -0.0930541 -0.168014 0.981383
-0.145625 -0.122148 0.0030055 0.0794853 -0.28091 0.956437
-0.345507 -0.366244 -0.00062412 -0.635304 0.443096 0.632499
0.109081 0.377806 0.00968653 0.157898 0.27429 0.948595
-0.0282784 0.324925 0.0122806 0.270938 0.316397 0.909112
-0.0170748 0.250281 -0.00649107 0.837529 0.261203 -0.479914
0.142163 0.246262 -0.00231105 0.620245 -0.632557 -0.463862
0.0958121 -0.136499 0.00423199 -0.247965 0.288707 -0.924749
0.228092 -0.0143502 0.00120103 0.554456 -0.832164 -0.00902704
-0.09909 -0.118432 -0.00175917 -0.276562 -0.121618 -0.953269
-0.120614 -0.160018 -0.00834376 0.672966 -0.374397 -0.637922
0.0711505 0.369313 -0.000680625 -0.447301 0.787132 0.424671
-0.0813389 -0.187175 0.00194722 0.00704035 -0.668671 0.743525
0.245071 -0.00243729 0.000364423 0.374643 -0.926047 0.0456071
0.334578 0.0634617 0.00492233 -0.429462 0.891725 0.142788
-0.219525 -0.169611 0.00496066 -0.751446 -0.657543 0.0544726
0.091453 0.231943 0.00969833 -0.187211 -0.0577909 0.980618
0.0191103 0.0611165 0.00666326 0.877384 -0.437693 0.196524
0.377103 0.0843484 0.00340444 -0.254647 0.942504 -0.216428
-0.29895 -0.328981 -0.00431365 -0.449936 0.250221 -0.85729
-0.00640666 -0.152892 0.00125581 0.20814 -0.493568 -0.844434
0.115813 -0.0459365 0.0110351 0.24686 0.12904 0.960421
0.019922 -0.149246 -0.000690639 0.0762208 -0.102233 0.991836
0.370512 0.0259917 -0.0117035 -0.0121918 -0.657201 -0.753617
0.374641 -0.0870188 0.0153874 0.230305 -0.21797 0.948393
0.458299 -0.012647 -0.00752711 0.193219 0.0873954 -0.977256
0.264412 -0.117725 -0.0214353 -0.484333 0.565602 -0.66747
-0.0647012 -0.186584 -0.0154231 0.34806 -0.757386 -0.552468
-0.0575629 0.195321 -0.0101238 0.126244 0.142039 -0.981778
0.393231 0.0511613 0.0148666 0.198558 -0.0615154 0.978157
0.117397 -0.0566703 0.00851977 -0.162996 0.0475859 0.985479
0.0850761 -0.0788597 -0.0100493 0.103273 0.051383 -0.993325
0.150232 0.280362 0.002886 0.838188 0.502396 0.212227
0.437698 -0.0163171 -0.0126029 -0.403052 0.0738822 -0.91219
-0.148697 -0.192014 -0.00765723 -0.321176 -0.580332 -0.748372
0.285201 0.0188916 -0.0111883 -0.101409 0.0945206 -0.990344
0.480196 0.0188578 0.0120142 0.0258912 -0.171748 0.984801
-0.0323644 0.237326 0.000266314 -0.132153 0.986782 -0.0937918
-0.0257407 0.280107 0.0019514 0.807709 -0.232635 0.541744
-0.0831848 0.0229194 0.00457489 -0.456226 0.8122 0.363577
0.44272 -0.0382262 0.0117427 -0.159513 0.056482 0.985579
-0.023546 0.25206 -0.00422281 0.931138 0.223769 -0.287938
-0.279001 -0.326436 0.00424087 0.0511803 -0.628327 0.776264
-0.195805 -0.153435 -0.00147468 -0.114555 0.17673 0.97757
0.210588 -0.159887 -0.00668049 -0.95305 -0.286388 -0.0983753
-0.109387 -0.155902 0.0017795 -0.970708 0.0774607 -0.227435
0.0180435 0.105213 -0.0074442 0.0317752 0.00933649 -0.999451
-0.0220901 0.197819 0.00748193 -0.193697 0.747951 -0.634863
-0.0184513 0.271851 -0.000675261 0.989357 -0.131381 0.0625403
0.215008 -0.0128952 0.0112095 -0.275826 -0.476154 0.834983
-0.0358565 0.343127 -0.0108536 0.0930399 0.0365919 -0.99499
0.0415447 0.131007 -0.0139212 0.0662848 -0.018104 -0.997636
0.493985 -0.0050571 0.00834107 0.635839 0.223609 0.738721
0.108049 -0.160176 -0.0103183 0.0136148 0.093734 -0.995504
-0.418709 -0.167558 -0.00158805 -0.0824768 0.0974669 -0.991815
0.116717 0.37891 3.80278e-05 0.592652 0.803791 0.0517968
0.0819451 0.357891 0.00881511 -0.545632 -0.736995 0.398904
-0.10813 -0.157884 -0.0114361 -0.189597 -0.466672 -0.86387
0.108027 0.340447 -0.00683445 0.0225802 0.0733617 -0.99705
0.431491 0.0516327 0.010905 0.136054 -0.108902 0.984698
-0.0437143 0.234849 -0.00750971 -0.115578 0.0354136 -0.992667
-0.4584 -0.174313 0.00282454 -0.23063 0.32514 0.917112
-0.178865 -0.128099 -0.00129992 -0.0592878 0.369949 0.927158
-0.0273372 0.0449502 0.0107668 0.050454 0.028435 0.998322
0.307074 0.0395291 0.0108489 0.330363 0.16928 0.92855
0.309001 0.0248685 0.00613594 0.0269802 0.0162922 0.999503
0.277582 0.0133907 0.00464565 -0.228807 -0.517375 0.824603
0.0165737 0.404496 -0.00901717 -0.57555 -0.249202 -0.778871
-0.034918 0.314064 -0.010653 0.0463697 -0.038964 -0.998164
-0.053936 -0.174708 0.00929952 0.237935 -0.707897 0.665033
0.0440921 -0.0561393 -0.00702155 -0.418535 0.777662 -0.469117
0.0296448 0.379561 -0.00380039 -0.295027 0.515793 -0.804311
0.0217256 0.0988584 -0.00886482 0.164331 -0.088301 -0.982445
0.445047 0.0667199 -0.0145873 0.25555 0.392117 -0.883707
-0.0388178 -0.146895 -0.00207543 -0.166627 -0.24451 -0.955223
-0.0665759 0.105921 -0.000520408 -0.856999 -0.50866 -0.0825649
0.128985 0.25762 0.00053978 -0.093665 0.911796 -0.399819
-0.0521545 -0.154395 0.00176626 0.34803 0.286961 0.892484
-0.126526 -0.186433 0.00305927 0.103599 -0.0369059 0.993934
-0.0752851 0.0111656 0.0043993 -0.0148998 0.387328 0.921821
-0.0861636 -0.119671 0.00360012 -0.461582 0.871628 -0.164947
-0.0850052 -0.0235869 0.000333488 -0.116649 0.079153 0.990014
-0.184253 -0.180551 0.000319719 -0.12963 0.0213567 0.991332
0.147849 0.29663 -0.000379741 0.999516 -0.00261203 -0.0310001
0.0854323 -0.17266 0.00961149 -0.0873403 -0.0327431 0.99564
0.137019 0.308857 0.0215167 0.257806 0.137947 0.956299
0.215864 0.0104771 0.0137855 -0.0306906 0.480828 0.876278
-0.0129802 0.0806963 -0.0067324 0.290027 -0.0111431 -0.956953
0.0136172 0.136492 -0.00502282 0.289031 -0.149254 -0.945613
0.223155 -0.144101 0.015578 0.0693209 -0.0830733 0.994129
-0.0897048 -0.0803237 -0.00219434 0.0327961 0.324735 -0.945236
-0.00115204 0.138677 0.0114366 -0.0579238 0.113462 0.991852
0.0855748 -0.149723 0.00797528 0.0249962 0.549956 0.834819
0.0190549 0.10017 0.0121771 0.0880173 0.125227 0.988216
-0.111626 -0.149282 -0.0014109 -0.153036 0.188428 -0.97009
0.0502829 -0.173476 0.0121342 -0.379502 0.0416434 0.924253
-0.159158 -0.218433 -0.00893229 -0.940644 -0.193009 0.279172
-0.079676 -0.0261792 -0.00712305 -0.0917852 -0.02603 -0.995439
0.393198 -0.0608685 0.0065378 -0.578465 0.784736 0.222638
0.497961 -0.0724362 0.00102937 0.90137 -0.430422 0.0476336
0.216367 -0.147986 0.00989133 -0.0464058 -0.308776 0.950002
-0.0621333 0.23193 0.00726444 -0.830666 0.1161 0.544531
0.0087654 0.173786 -0.00106573 0.200416 0.739468 0.642666
0.349486 -0.106075 0.0104216 0.466086 -0.0812188 0.881003
0.361216 -0.0886562 0.0118524 -0.121643 -0.195676 0.973095
-0.0117044 0.368811 0.00843352 0.334298 -0.544879 0.768994
0.353009 -0.0870045 0.00192291 -0.156999 0.965262 0.208854
0.00427681 0.0310895 -0.00851089 0.530617 -0.155093 -0.833302
0.157342 0.25962 0.0119188 0.745251 0.20935 0.633066
-0.0120444 -0.137926 0.0011726 0.0552001 -0.183609 0.981448
-0.163651 -0.241923 -0.00829411 -0.159659 -0.833743 -0.528566
-0.251101 -0.172636 -0.0111306 0.00629394 -0.12657 -0.991938
0.40648 -0.106528 0.00224948 0.34856 -0.901986 0.254809
-0.0800831 -0.155679 0.00345892 0.997084 -0.0723666 -0.0242047
0.121275 -0.0573533 -0.0084995 -0.269909 -0.00590643 -0.962868
-0.0814637 0.107553 -0.00925499 -0.173019 -0.194212 -0.965581
-0.00462514 0.0969232 0.0162604 0.212669 -0.251603 0.944176
-0.462514 -0.180343 0.00614339 -0.175027 0.427029 0.887137
0.144811 0.298743 0.00252819 0.95984 0.260957 0.102994
-0.291272 -0.165221 0.0023998 -0.711089 0.248476 0.657733
0.320856 -0.103083 0.00243932 -0.119955 0.893034 0.433705
0.15913 -0.133919 0.0030607 -0.018957 0.999321 -0.0316045
0.0517909 0.374972 -0.00874549 -0.215897 0.0440792 -0.975421
-0.174442 -0.193643 0.0029847 -0.23199 0.246426 0.940986
0.135576 0.226287 -0.00159186 0.969646 0.107084 0.219816
-0.0204234 0.16333 0.00947779 0.0558466 0.177326 0.982566
-0.126176 -0.131126 0.000990272 -0.343031 -0.850446 0.398837
0.358273 0.0343255 -0.00910729 0.133317 0.0288857 -0.990652
0.0296672 0.35727 0.00691742 0.19745 -0.70741 0.678663
0.0108419 0.147511 0.00841355 0.0347232 -0.552322 0.832908
-0.0598007 -0.0185784 0.00710601 0.188025 -0.653898 0.732847
0.285579 0.0395741 0.00971353 -0.249037 -0.133642 0.959229
-0.0483377 0.162095 0.0179892 0.360843 -0.107378 0.926425
-0.0409892 0.0523226 0.0113888 0.00917508 0.187736 0.982177
-0.0642286 -0.13531 0.00770193 0.177266 0.602418 0.778248
0.117693 -0.0442101 0.0125809 0.244086 0.297336 0.923046
-0.0172858 0.381916 0.0123119 -0.101497 0.0644926 0.992743
-0.160269 -0.182253 0.00211918 -0.441894 -0.773895 0.45367
-0.0422565 0.3355 0.0162024 -0.209919 0.149604 0.966205
-0.118932 -0.151262 0.00596744 -0.46266 0.862959 0.203093
0.168338 -0.157939 -0.0138577 -0.430636 0.646999 -0.629241
0.0984564 0.325612 -0.000707448 -0.97778 -0.145245 0.151163
0.27609 0.0178244 0.0100119 0.156114 0.231501 0.960227
-0.0942155 -0.0913819 -0.00351834 -0.729986 -0.667509 -0.146808
0.0314299 -0.146932 0.000333011 -0.930036 -0.353948 0.0987579
0.0301015 0.206096 0.00176048 0.107837 0.847192 0.520227
-0.0858131 -0.167164 0.00148934 -0.105173 0.243219 0.964253
0.191522 -0.158934 -0.0136716 -0.0988047 0.140648 -0.985117
0.390601 -0.101018 -0.0146695 0.177926 -0.00680643 -0.98402
0.0143072 0.376315 0.00334948 -0.426433 0.751134 -0.503938
0.00039947 -0.128234 -0.00905436 0.0119674 -0.0963879 -0.995272
0.0532221 0.400854 -0.00643456 0.0933823 -0.0879983 -0.991734
0.421031 -0.0989735 -0.00974327 -0.376718 -0.924694 -0.0549916
0.0817025 0.205827 -0.00790554 -0.0691309 0.147381 -0.986661
0.445096 -0.0399789 0.0132984 -0.0210615 0.163357 0.986342
-0.0756834 0.0220391 -0.00356948 -0.210529 -0.24475 -0.946454
0.22289 0.0134215 -0.0100914 -0.0651511 0.430549 -0.900213
-0.021267 0.0770909 -0.00517905 -0.114665 -0.0490343 -0.992193
-0.0753622 0.166875 -0.00233001 -0.99698 -0.0238126 -0.0739115
-0.352508 -0.194765 -0.00595534 0.00797055 -0.789346 -0.613897
0.192091 -0.134457 -0.00777256 0.126984 0.672389 -0.729225
0.0948921 0.23486 0.0131791 -0.125906 -0.233672 0.964129
0.074156 0.364443 -0.0136863 -0.238176 -0.931886 -0.273605
0.114417 0.287242 0.00938272 -0.0156769 -0.291222 0.956527
-0.143943 -0.218711 -0.00294071 -0.107043 0.0226074 -0.993997
-0.0411 0.226721 0.0154265 -0.100117 0.119315 0.987796
-0.00172961 0.331168 0.0120311 -0.0309979 -0.0252009 0.999202
0.41459 0.0440994 -0.00852931 0.00737141 0.0164275 -0.999838
-0.165572 -0.219088 -0.000902116 0.628024 -0.129115 0.767408
0.125232 -0.0531769 0.00997978 -0.0540663 -0.013308 0.998449
0.0966889 -0.0871965 0.010286 0.253862 -0.0659034 0.964993
0.0529504 0.395119 0.00536031 -0.151594 0.0138545 0.988346
-0.0404605 0.367252 -0.000971079 -0.858503 0.510662 0.0468786
-0.0880585 0.0957571 0.00378287 -0.961623 0.22551 0.15629
-0.0747625 0.000288308 -0.00017947 -0.0800186 -0.110991 -0.990595
0.498543 -0.043193 0.00430995 0.905256 -0.283885 0.316102
-0.33696 -0.168747 0.00318432 -0.0557243 0.516816 0.854281
-0.0301942 0.210417 0.00944513 0.297532 -0.234682 0.925419
-0.0872393 -0.158219 0.00300819 -0.0735128 -0.212192 0.974459
0.0829557 -0.152262 -0.0125638 -0.011455 0.0705707 -0.997441
0.13476 0.249888 0.0154402 -0.179526 0.0753118 0.980866
0.347055 -0.0901419 0.00568086 -0.457027 0.849702 0.262931
0.147746 -0.0308482 0.00684744 -0.181847 0.278482 0.943069
-0.032413 0.236344 -0.0118507 0.0391504 -0.374216 -0.926515
-0.243602 -0.146395 -0.00450689 0.0231438 0.249091 -0.968203
0.379823 -0.0721986 0.00063163 -0.679448 0.729883 -0.0749703
-0.229054 -0.173486 -0.0108117 -0.414567 -0.336911 -0.845355
-0.0428519 0.235593 0.00885242 0.144274 0.539961 0.829233
0.163259 -0.148039 -0.00406265 0.9096 0.00733863 0.41542
-0.314714 -0.356504 0.011106 -0.0926016 0.0602343 0.99388
0.464696 -0.074941 -0.00992167 -0.160903 -0.0279825 -0.986574
0.459464 0.0166889 0.00871235 -0.128787 -0.0300822 0.991216
0.313391 -0.102301 -0.00280601 -0.282786 0.954061 -0.0989942
-0.120126 -0.185655 1.40071e-05 0.0967332 0.110536 0.989153
0.31134 0.0254761 0.0094955 0.0839263 -0.0583823 0.99476
0.327278 -0.118551 0.0132812 -0.18097 -0.0817107 0.980088
0.376308 0.0604303 0.0148857 -0.084024 0.15746 0.983944
-0.240191 -0.185286 -0.000453293 -0.0562232 -0.0973894 -0.993657
0.393544 0.0629974 0.0079177 -0.0955622 -0.12077 0.98807
0.108331 0.37896 -0.01173 0.116353 0.340804 -0.932907
-0.119327 -0.208712 0.00493902 0.0567449 -0.588769 0.806307
0.382485 0.0137938 -0.0142232 -0.0628973 -0.990562 -0.121778
-0.15912 -0.178811 -0.00203788 -0.347383 0.162405 0.923553
-0.0867968 -0.0260626 -0.00135052 0.00725556 -0.251372 -0.967863
-0.293861 -0.156727 -0.00270241 0.143957 -0.0899706 -0.985485
0.297216 -0.15502 0.00441682 0.347093 -0.91324 0.213353
0.145306 0.229437 -0.00897276 -0.143839 0.174976 -0.974009
0.0156783 0.209741 0.00018841 -0.0986722 0.994096 0.0451273
0.144096 -0.145334 -0.0074476 -0.388833 0.123153 -0.91304
-0.112086 -0.140176 0.000156462 -0.276944 -0.0229642 -0.960612
-0.194654 -0.261317 0.000742614 -0.0757392 -0.172362 0.982118
0.0752768 0.214753 0.00531298 0.34669 -0.301515 0.888197
-0.0813577 0.132888 0.0110117 -0.614534 -0.06638 0.786092
-0.311969 -0.1866 -0.00196987 0.654736 -0.636316 -0.40795
-0.142817 -0.158286 -0.00180751 -0.240354 0.488857 0.838599
-0.116172 -0.127777 -0.00253296 -0.128965 0.0266239 -0.991292
0.0123963 0.345662 0.0121875 0.485183 -0.245862 0.839136
