-0.164581 -0.134 -0.00718993 -0.0464598 0.908515 -0.41526
0.252762 -0.331294 0.0118691 -0.262817 0.129434 0.956125
-0.0672917 0.324814 -0.011355 0.62835 -0.178078 -0.757275
0.136769 0.116575 0.0118691 0.100713 -0.105433 0.989313
0.396717 0.0621916 0.0118691 0.293202 -0.44496 0.846194
0.0577278 0.204401 -0.0118691 -0.0552391 0.139361 -0.9887
-0.139401 0.256882 -0.0118691 -0.19075 0.0994491 -0.976588
0.249353 0.183235 0.0118691 0.00142162 -0.114201 0.993457
0.376759 -0.184417 0.0118691 0.28875 0.204686 0.935268
-0.239536 0.14365 -0.0118691 -0.148882 0.0410602 -0.988002
0.416149 -0.232389 0.0118691 0.604218 -0.185582 0.774906
0.197215 0.208677 0.00647199 -0.84251 0.242746 0.480886
0.454157 0.250422 0.0118691 -0.105407 0.00815075 0.994396
0.325514 0.0211041 -0.0102865 0.323031 -0.697519 -0.639623
0.189475 -0.323151 0.0118691 0.046339 -0.245007 0.968413
0.181582 0.0456409 0.0118691 -0.0725518 -0.136455 0.987986
0.185474 0.409602 -0.0118691 0.0411261 -0.0360376 -0.998504
-0.239714 0.116232 -0.0118691 0.206368 -0.0908984 -0.974243
-0.204118 0.391054 -0.0118691 0.0880482 -0.0872912 -0.992284
-0.237761 -0.357585 -0.0118691 0.139138 0.0486421 -0.989078
-0.34432 -0.177116 -0.0118691 -0.0484609 -0.0311528 -0.998339
0.326492 -0.348638 -0.0118691 -0.0470849 0.0218107 -0.998653
0.157407 0.263599 -0.0118691 -0.439265 -0.292767 -0.849314
0.320243 -0.0859262 0.00433201 0.702314 0.689748 0.176074
-0.0953577 0.287212 -0.0118691 -0.0207803 0.098439 -0.994926
0.132408 -0.163484 -0.00896168 -0.848975 -0.432158 -0.304107
0.340844 0.459998 0.00279516 0.28434 0.939629 0.190392
0.460191 0.229578 0.0118691 -0.180384 -0.0595431 0.981792
0.291555 -0.0350102 -0.00917518 -0.144335 0.801484 -0.580337
-0.207378 0.131501 -0.0118691 0.0651741 -0.0474957 -0.996743
-0.300493 -0.238314 -0.0118691 0.0456842 -0.0405287 -0.998133
-0.101094 -0.254262 -0.0118691 -0.250534 0.0939144 -0.963542
0.33731 -0.368338 0.0118691 0.3639 -0.220403 0.904986
-0.166661 0.14098 0.0118691 -0.0119274 -0.0362469 0.999272
0.308932 0.232862 -0.0118691 -0.0753521 0.162819 -0.983774
-0.367634 -0.204245 0.00832337 -0.907422 0.0713051 0.414126
0.459148 -0.341258 -0.0118691 0.238788 -0.231182 -0.943152
0.372735 -0.184195 0.0118691 0.00412644 0.116035 0.993237
-0.206448 -0.39732 -0.0118691 0.0469834 0.0829141 -0.995449
0.257975 0.293516 0.0118691 -0.244619 0.186725 0.95147
0.363565 -0.144651 -0.0118691 -0.0710951 0.0835494 -0.993964
0.33907 -0.285358 0.0118691 -0.0784628 -0.0118875 0.996846
-0.125538 0.309691 -0.0118691 0.318455 -0.0200304 -0.947726
-0.351073 -0.255174 -0.0118691 -0.0149187 0.0667073 -0.997661
0.265293 -0.12374 0.0118691 -0.169851 0.223186 0.959864
0.167931 -0.237116 -0.0118691 -0.830696 -0.240748 -0.50198
0.214902 -0.304658 0.0118691 -0.038121 0.106763 0.993553
-0.326458 -0.181565 -0.0118691 0.173797 -0.115618 -0.977971
0.0727223 0.177813 -0.0118691 0.188318 -0.0302421 -0.981642
0.457952 0.267695 -0.0118691 -0.0276418 -0.126044 -0.991639
-0.14905 -0.242058 0.0118691 -0.0740613 -0.0129712 0.997169
-0.263911 -0.173488 -0.0118691 -0.056701 -0.106264 -0.99272
0.223553 -0.262794 0.0118691 -0.169601 0.0465939 0.984411
-0.235905 -0.383935 -0.0118691 -0.00258598 -0.0620081 -0.998072
-0.352802 0.367585 -0.0118691 -0.423431 0.0590817 -0.904
0.219531 0.275433 0.0118691 -0.123403 -0.10209 0.987091
0.206845 0.0767704 -0.0118691 -0.082653 0.0206316 -0.996365
-0.185738 -0.321749 0.0118691 0.0742374 -0.0981432 0.992399
-0.0849792 0.376602 0.00953245 0.765856 0.364441 0.529762
0.28122 -0.443223 0.0118691 -0.618081 -0.55915 0.552565
0.365214 0.0362394 0.0077672 0.487782 -0.796348 0.357629
-0.138883 -0.143001 -0.0118691 0.142862 -0.101907 -0.984482
-0.105322 0.363332 -0.0118691 0.0922063 0.0479235 -0.994586
0.0905113 0.112498 -0.0118691 -0.518023 -0.188546 -0.834328
0.35485 0.283449 0.0118691 -0.0408489 0.109002 0.993202
-0.239486 -0.179722 0.0118691 -0.0991032 0.086154 0.991341
-0.353123 -0.0631638 -0.0118691 -0.00908642 -0.197901 -0.98018
0.233683 -0.360249 0.0118691 -0.265862 -0.355417 0.8961
0.240025 0.433732 0.0118691 0.0843456 -0.00147088 0.996435
0.451139 0.114669 0.0118691 0.360834 -0.243835 0.900191
0.250765 -0.212494 0.0118691 0.12207 0.0253657 0.992197
0.141456 -0.183069 -0.0110193 -0.870413 -0.424965 -0.248567
0.127045 0.358558 -0.0118691 0.0728038 -0.0872922 -0.993519
-0.0717903 0.290656 0.00815219 0.846889 -0.201539 0.492098
-0.124391 -0.308179 0.0118691 -0.250305 -0.022439 0.967907
0.229033 -0.341822 0.0118691 0.0286654 0.111751 0.993323
0.349914 0.296021 -0.00956619 0.0856367 0.876045 -0.474564
-0.152153 -0.275772 0.0118691 -0.170535 0.109627 0.979234
0.277355 -0.257367 0.0118691 -0.0110651 0.0518688 0.998593
0.159427 0.101676 0.0118691 0.0661744 0.211827 0.975064
0.45842 -0.329369 0.0118691 0.22886 0.457832 0.859077
0.282519 0.419298 0.0118691 -0.124714 -0.303973 0.944482
0.471357 -0.34284 -0.00922978 0.558801 -0.394334 -0.72955
-0.481824 -0.215552 0.0118691 0.00710362 0.538815 0.842394
0.223487 0.274106 -0.0118691 0.111267 -0.0310114 -0.993307
-0.140765 -0.30099 0.0118691 -0.0122622 0.0115561 0.999858
-0.320847 -0.123515 0.0118691 -0.0923607 -0.239103 0.966591
0.109661 0.288766 -0.00976896 0.414258 -0.355203 -0.837986
0.118743 0.296021 0.0012362 0.515953 0.856495 0.0144121
0.462787 0.284393 -0.0118691 0.071451 0.051796 -0.996098
-0.128714 0.410836 0.000182509 0.264941 0.963919 -0.0258269
0.274805 0.349173 -0.0118691 0.156567 -0.0300663 -0.98721
0.0705156 0.296199 -0.0118691 0.203132 -0.0690578 -0.976713
0.34601 -0.255828 0.0118691 0.0356442 -0.224408 0.973843
-0.191498 -0.269586 0.0118691 -0.236796 -0.122043 0.963864
-0.163926 0.187936 -0.0118691 0.0366697 -0.0548115 -0.997823
-0.167953 0.132615 0.0118691 0.0630649 -0.114523 0.991417
-0.151518 0.382763 0.0118691 0.30383 -0.048518 0.95149
-0.322307 0.370583 0.0118691 0.10544 0.0187465 0.994249
0.344397 -0.300587 0.0118691 -0.114209 0.0218735 0.993216
-0.30346 -0.155203 -0.0118691 0.0783241 -0.0974222 -0.992156
0.441671 0.293397 0.0118691 -0.126419 0.0504101 0.990695
-0.195083 -0.208408 -0.0118691 0.0708314 -0.015535 -0.997367
0.414428 0.332169 0.00010556 0.779632 0.623159 -0.062019
0.113506 0.0993559 0.0118691 -0.0871103 -0.187374 0.978419
0.321238 0.417727 -0.0118691 0.0144304 -0.105668 -0.994297
-0.195249 -0.440445 -0.0118691 0.378855 0.169961 -0.909716
0.441756 0.378251 -0.0118691 0.169281 -0.0210657 -0.985343
0.365069 0.0456995 0.0118691 0.0176357 -0.0596176 0.998065
0.177596 0.0502267 0.0118691 -0.117618 -0.084177 0.989485
0.0863606 0.375888 0.00800484 -0.797694 0.46054 0.389342
0.373094 -0.133315 -0.00693464 0.0093171 0.923969 -0.382353
0.480159 0.331433 0.00374353 0.9194 0.249832 0.303788
0.322861 0.0207549 0.00641364 0.210655 -0.919005 0.333248
-0.259523 0.227484 -0.0118691 0.22551 -0.0283156 -0.973829
0.321506 -0.0875223 -0.00828648 0.581331 0.493144 -0.647196
0.148814 0.380095 0.0118691 0.0926594 -0.199948 0.975415
-0.232065 -0.226885 -0.0118691 -0.0988214 0.204702 -0.973823
-0.358318 0.286367 0.0118691 -0.432923 -0.0171371 0.901268
-0.268488 -0.0459914 -0.0118691 0.218552 0.105593 -0.970096
0.102553 0.25318 0.00791556 0.830589 -0.136434 0.539915
-0.154762 -0.237516 -0.0118691 0.201845 0.0234156 -0.979138
-0.122591 0.18684 0.0118691 0.393021 -0.314789 0.863969
0.261372 -0.379918 0.0118691 -0.188875 -0.236775 0.953029
0.181856 0.0417897 0.0118691 -0.0402407 -0.0957161 0.994595
0.335196 0.276756 0.0118691 0.0187188 -0.161437 0.986705
-0.148224 0.138978 -0.00464463 0.702182 -0.696436 -0.148042
-0.263742 -0.0460917 0.0090189 0.844201 0.169286 0.508593
-0.279383 0.179141 -0.0118691 0.171581 -0.016156 -0.985037
-0.197997 -0.201187 -0.0118691 0.0830541 -0.0467565 -0.995448
0.169824 -0.20256 0.0118691 -0.0262154 0.042349 0.998759
0.280455 0.402256 -0.00797069 0.959308 0.274989 -0.0641083
0.091451 0.382522 0.0117581 -0.449622 0.116653 0.885569
0.466635 0.361125 0.00561154 0.836088 0.427259 0.344103
-0.120089 -0.236618 0.0118691 0.088538 0.134367 0.986968
0.359929 -0.347605 0.0118691 -0.0292243 -0.615126 0.787887
0.446562 -0.313391 0.000582695 0.91575 0.399662 -0.0408839
0.327074 0.421213 -0.0118691 0.193594 -0.152784 -0.969112
-0.207432 -0.124346 -0.0117106 0.0603164 0.902715 -0.425989
-0.211394 0.192178 -0.0118691 -0.0472917 0.118579 -0.991818
-0.319733 0.283659 -0.0118691 0.0702963 -0.251437 -0.965317
-0.336152 -0.120275 -0.0118691 0.0675431 0.0342073 -0.99713
-0.20591 0.237649 0.0118691 0.0265255 0.0919072 0.995414
0.473261 0.310505 -0.0118691 0.116179 0.00527138 -0.993214
-0.322064 -0.0953633 0.0118691 0.136841 -0.197269 0.970752
0.267927 -0.394341 0.0118691 -0.363214 -0.0581128 0.929892
0.310543 -0.125489 -0.0118691 -0.321084 -0.122395 -0.939108
0.208067 0.462999 0.00859892 -0.348603 0.804172 0.481439
0.254181 0.217191 0.0118691 -0.447287 0.000823173 0.89439
0.320996 0.266135 0.0118691 0.0506468 -0.0231467 0.998448
-0.233023 -0.416509 -0.0118691 -0.532899 -0.0791103 -0.842472
-0.238313 -0.237164 -0.0118691 0.00761583 0.00494341 -0.999959
-0.0743917 -0.222124 0.0118691 0.194937 -0.0901713 0.976662
0.426892 0.1355 -0.0118691 -0.0169866 0.238086 -0.971096
-0.225745 0.107354 0.0118691 -0.0642896 -0.172973 0.982826
-0.309549 0.170254 -0.00661075 -0.829957 -0.502134 -0.242965
-0.149332 -0.44183 -0.00161666 0.978758 0.188835 -0.0798379
0.094529 0.186775 -0.0118691 -0.00178113 -0.0427582 -0.999084
-0.231713 0.0790688 0.0102599 -0.370277 -0.75356 0.543177
0.28515 0.33662 0.0118691 0.0176265 0.10108 0.994722
0.211986 0.0216527 0.00148219 -0.0962469 -0.995171 0.0192806
0.415873 -0.246968 0.00825053 0.797399 0.000132486 0.603452
0.339952 -0.110836 0.00129104 0.696599 0.706857 0.122898
0.31395 -0.357208 -0.0118691 -0.0248596 0.0385554 -0.998947
-0.187631 0.347693 0.0118691 0.0969145 -0.259483 0.960873
0.47803 0.149571 0.000869155 0.914267 -0.365527 0.174658
0.152472 0.0737777 -0.0118691 -0.0981703 -0.0055049 -0.995154
0.149981 0.404885 0.0118691 0.110069 0.207633 0.971995
0.164555 0.252819 0.0118691 -0.817159 -0.466961 0.337933
0.390649 -0.169752 -0.0118691 0.00693008 -0.0480494 -0.998821
0.163947 -0.344019 0.00774103 -0.222349 -0.854449 0.46955
0.266385 0.299835 0.0118691 -0.0763132 0.0142101 0.996983
0.260287 0.322948 -0.0118691 0.0464532 0.0405996 -0.998095
-0.160176 0.415287 -0.0118691 -0.0923618 0.921564 -0.377079
0.0996209 0.378256 -0.0118691 -0.140686 -0.0431408 -0.989114
-0.326404 0.401197 -0.00386757 -0.574771 0.743969 -0.340806
-0.118816 0.321557 -0.0118691 0.130491 -0.0629127 -0.989451
0.377524 0.444805 -0.00752455 0.403361 0.745697 -0.530316
-0.299948 -0.0710875 0.0118691 -0.0792539 0.132271 0.98804
-0.166864 0.193601 -0.0118691 0.0571939 -0.0723277 -0.99574
-0.263761 -0.0441618 0.00617677 0.966772 0.153757 0.204233
0.351745 -0.155768 -0.0118691 0.0817972 0.0930162 -0.992299
-0.283702 -0.29782 -0.0118691 -0.25809 0.0832886 -0.962524
-0.186715 -0.459898 0.0118691 0.0644393 -0.640284 0.76543
-0.280725 0.128351 -0.00590581 -0.694326 -0.616083 -0.371958
0.218855 0.267777 -0.0118691 0.0659757 -0.221905 -0.972834
-0.221559 0.11173 0.0118691 -0.211995 0.250646 0.944582
0.31169 -0.341694 -0.0118691 0.0123737 0.317134 -0.9483
0.373894 0.249434 -0.00841504 0.481382 -0.844253 -0.235601
-0.216792 0.383103 0.0118691 0.0311315 0.0180974 0.999351
0.305721 0.290011 0.0118691 0.0745849 -0.0884067 0.993288
0.215771 -0.150918 0.0118691 -0.0660156 -0.104207 0.992362
-0.166205 -0.233018 0.0118691 0.115213 -0.0881803 0.989419
0.126239 -0.159327 0.00825542 -0.33127 -0.575522 0.747686
-0.113101 0.208715 -0.0118691 0.286451 -0.149041 -0.946431
0.296028 0.153749 0.00441313 -0.408927 -0.910183 0.0659194
-0.183266 0.172622 0.0118691 -0.189633 0.0498262 0.98059
0.473075 0.137609 0.00555807 0.798273 -0.511863 0.317423
0.402748 0.0579061 0.00703472 0.589631 -0.676821 0.440737
0.301773 0.468165 0.00315988 0.184134 0.982717 0.0190133
-0.396779 -0.300796 0.0118691 0.240526 0.463576 0.852786
0.174467 0.127819 0.0118691 -0.754429 0.653658 0.0597365
0.242412 -0.155211 -0.0118691 0.0627971 -0.085898 -0.994323
-0.30418 -0.0514939 0.0118691 -0.0184113 -0.00488971 0.999819
0.312329 0.437481 -0.0118691 -0.0656487 -0.126872 -0.989744
-0.302358 -0.187572 -0.0118691 0.00883157 -0.165343 -0.986197
0.117898 0.400077 -0.0118691 -0.12205 0.36801 -0.921777
0.110711 0.190217 0.00678045 0.908132 0.386053 0.162048
-0.194461 0.195504 -0.0118691 0.0584934 0.0231787 -0.998019
0.133544 0.388448 0.0118691 -0.211859 0.0789606 0.974105
0.269588 -0.0886194 -0.0118691 -0.274425 0.125212 -0.953422
0.399752 0.0556074 0.00609469 0.583937 -0.742582 0.32801
0.134713 0.425009 0.0110662 -0.279641 0.939569 0.197511
-0.274974 0.41383 0.0118691 -0.0735903 0.196513 0.977736
0.217765 -0.262122 -0.0118691 -0.110553 0.131492 -0.985133
0.39992 0.403877 -0.0118691 0.0243989 -0.186844 -0.982086
0.150262 0.0804645 0.0118691 -0.0755024 -0.0470299 0.996036
-0.290251 0.320236 0.0118691 0.0287493 -0.104491 0.99411
0.498742 0.233518 -0.00744534 0.812078 -0.135981 -0.567485
0.316171 -0.40306 0.0102736 0.754827 -0.496676 0.428427
-0.186793 -0.131142 -0.0118691 0.337616 0.67327 -0.657817
0.196717 -0.237746 -0.0118691 0.103671 -0.419466 -0.901832
0.318386 0.217782 -0.0118691 0.0430466 -0.0576965 -0.997406
0.254619 -0.360889 0.0118691 0.049963 0.129369 0.990337
0.288091 0.332226 0.0118691 0.000126587 -0.036686 0.999327
0.247058 -0.369569 -0.0118691 -0.28581 -0.151599 -0.946219
-0.0965421 -0.296077 -0.0118691 0.0184203 0.319293 -0.947477
-0.422639 -0.21331 -0.00340182 0.0556201 0.986063 -0.1568
0.0875586 0.324522 -0.0118691 0.104707 0.00441747 -0.994493
-0.311525 -0.222308 -0.0118691 -0.0649107 -0.0106268 -0.997835
-0.289341 -0.162045 -0.0118691 0.0128756 -0.113099 -0.9935
0.0754361 0.361651 -0.00191438 -0.789322 0.573114 -0.220251
-0.352114 -0.152737 0.0118691 0.124708 -0.189685 0.973893
-0.251152 0.337163 0.0118691 0.0330558 0.0454364 0.99842
0.436687 -0.191761 -0.0118691 0.6089 -0.331291 -0.720755
0.223803 0.0805368 0.0071761 0.284922 0.850278 0.442546
-0.297612 0.346487 0.0118691 -0.183174 -0.0475514 0.98193
-0.194844 -0.252883 -0.0118691 0.0683835 0.177545 -0.981734
-0.11972 -0.201443 -0.0118691 -0.079521 0.086981 -0.993031
-0.122965 -0.20715 -0.0118691 -0.0512514 0.0529824 -0.997279
-0.283756 0.132413 -0.00449455 -0.798752 -0.521153 -0.300657
-0.203841 -0.242183 0.0118691 0.0802813 -0.151945 0.985123
0.3562 -0.347861 -0.0118691 0.0840874 -0.328694 -0.940686
-0.345181 -0.224597 0.0118691 -0.176472 0.0256942 0.98397
-0.170104 -0.199519 0.0118691 -0.0304249 -0.0971425 0.994805
-0.191574 0.352711 -0.0118691 0.0585611 -0.0165816 -0.998146
-0.0952641 -0.301343 0.0118691 -0.00605873 0.0427793 0.999066
0.119591 0.296021 0.00612491 0.86142 0.401073 0.311603
0.231037 -0.156926 0.0118691 0.00302679 0.0175054 0.999842
0.405324 -0.283671 0.0118691 0.06753 -0.00227172 0.997715
0.261698 0.403813 -0.000684381 -0.873564 0.114983 -0.472932
-0.26339 -0.0582747 -0.0081293 0.90987 0.0643318 -0.409877
-0.153796 0.293598 0.0118691 -0.0189637 0.0228721 0.999559
-0.313761 0.279332 -0.0118691 -0.0852798 0.00684509 -0.996334
-0.142102 -0.244352 0.0118691 -0.0881308 0.0536026 0.994666
-0.123934 0.243921 0.0118691 -0.150095 0.0867612 0.984857
-0.0288999 -0.28058 0.0118691 0.747554 -0.00472562 0.664184
0.411773 0.400782 0.0118691 -0.0543015 0.0510337 0.99722
-0.181924 -0.417026 0.0118691 0.248722 0.0935452 0.964047
0.416782 -0.261306 -0.0118691 0.369596 0.290286 -0.882685
-0.173766 0.390838 0.0118691 0.130851 -0.0961689 0.986727
0.169201 0.067143 0.0118691 0.0484695 -0.0842589 0.995264
0.237476 0.212021 0.0118691 0.125094 0.106184 0.986446
-0.133162 0.321992 0.0118691 0.274967 0.146151 0.95028
0.0904989 0.27982 0.0118691 -0.146012 0.216777 0.96524
-0.114324 0.230534 0.0118691 0.0688601 -0.0433 0.996686
0.235923 0.265185 -0.0118691 -0.0427468 -0.0809403 -0.995802
0.333444 0.414165 -0.0118691 -0.113249 0.0860844 -0.98983
-0.284379 -0.293569 -0.0118691 -0.220586 -0.0240322 -0.975071
0.441168 0.337676 -0.0118691 -0.00538479 0.0677114 -0.99769
0.06898 0.349471 -0.00121951 -0.898999 0.437942 0.00257149
-0.257829 -0.296743 -0.0118691 -0.132343 -0.261708 -0.95603
-0.263234 -0.0622489 -0.00936699 0.890817 -0.0313869 -0.453277
0.326193 -0.269034 -0.0118691 0.084628 -2.80957e-06 -0.996413
0.410262 -0.183589 0.0118691 -0.108891 -0.0163322 0.993919
0.111851 -0.152525 0.0106503 -0.607732 -0.42464 0.671076
0.292512 -0.39497 0.0118691 -0.179104 -0.140314 0.973773
-0.270575 0.307649 0.0118691 0.034143 -0.172467 0.984423
-0.107144 0.273755 0.0118691 -0.0717533 0.0231628 0.997153
-0.433508 -0.291608 -0.00315273 -0.921734 -0.295123 -0.251612
0.0735375 0.346942 0.0118691 -0.455511 0.352131 0.817627
0.102936 0.256093 -0.00391346 0.990442 -0.120756 -0.0666603
0.311176 0.183708 -0.0118691 0.0678457 0.175917 -0.982064
0.162301 0.258846 0.0118691 -0.681727 -0.158332 0.714268
0.30762 -0.176884 -0.0118691 -0.0451594 -0.0531363 -0.997566
0.317001 -0.259747 -0.0118691 0.237042 0.227654 -0.94445
-0.273889 -0.321549 -0.0118691 0.10127 0.027487 -0.994479
0.0700046 0.351945 -0.00585085 -0.856504 0.439203 -0.271113
0.404302 0.0590988 0.00697249 0.457433 -0.767951 0.448337
-0.0894066 -0.323606 0.0118691 0.00845532 -0.144725 0.989436
-0.309583 -0.309007 0.0118691 -0.144376 -0.379158 0.913999
0.271649 0.40168 0.0118691 0.359967 -0.0978971 0.927814
0.472005 -0.146968 0.00282383 0.943941 -0.042317 0.327392
0.128139 0.291862 -0.0118691 -0.444975 -0.156807 -0.881708
-0.246089 0.338614 0.0118691 0.0436618 -0.0985416 0.994175
0.390755 0.0899126 -0.0118691 -0.0553122 -0.0310465 -0.997986
0.237694 0.159251 -0.0118691 0.141437 -0.282974 -0.948642
0.202877 0.121874 -0.0118691 0.660929 -0.355834 -0.660724
0.198359 -0.205178 0.0118691 -0.0232219 0.095577 0.995151
-0.406209 -0.273242 0.0118691 -0.251186 -0.17082 0.952747
-0.348413 -0.025121 0.00756872 -0.116974 0.889287 0.442138
0.257487 0.356588 0.0118691 -0.286998 0.0930277 0.953403
-0.300418 -0.0916843 0.0118691 -0.0665208 -0.109563 0.991751
0.345025 0.229895 -0.00347543 0.683481 -0.717709 -0.133221
-0.200379 -0.17949 0.0118691 0.474375 0.161282 0.865423
0.247106 0.452647 0.0118691 -0.0551696 -0.0189273 0.998298
0.308843 0.274794 -0.0118691 0.268102 0.109275 -0.957173
0.275358 0.0252718 -0.0118691 -0.00872227 -0.229864 -0.973184
0.440276 0.286365 0.0118691 -0.378812 -0.112313 0.918633
0.418423 0.416036 0.0118691 0.433592 0.448132 0.781777
0.285015 0.220588 0.0118691 -0.0223308 0.0507735 0.998461
-0.311081 0.381004 0.0118691 0.0339126 -0.0184446 0.999255
0.358642 -0.185116 0.0118691 -0.116765 -0.106944 0.987385
0.439597 -0.155931 0.0118691 0.0863001 0.127835 0.988034
-0.161691 0.283969 -0.0118691 0.058682 -0.11092 -0.992095
-0.156262 0.344434 0.0118691 -0.0684606 0.0042924 0.997645
0.438382 0.258745 0.0109957 -0.876925 -0.0967135 0.470796
0.120257 0.119592 -0.0118691 0.151769 -0.168466 -0.973953
0.089343 0.379775 -0.00147122 -0.914231 0.405136 -0.00684515
-0.163092 -0.24071 0.0118691 -0.0258671 -0.426261 0.90423
-0.369556 0.325694 -0.00835365 -0.824657 0.0588577 -0.562562
0.166196 0.0800738 0.0118691 -0.0183202 0.143628 0.989462
0.229362 0.146775 0.0118691 0.291426 -0.342607 0.893136
0.450631 -0.322197 -0.0110855 0.454664 0.447573 -0.770039
0.388753 0.388289 -0.0118691 0.078305 0.0317099 -0.996425
-0.0905428 0.303173 0.0118691 0.000663247 0.0760108 0.997107
0.464586 -0.32585 -0.0052076 0.51691 0.837865 -0.175461
0.426851 0.180307 6.31213e-05 -0.791072 0.611432 -0.0188717
0.0689677 0.274288 -0.0118691 0.0862297 -0.196785 -0.976647
0.363177 0.434269 -0.0118691 -0.20098 0.0161721 -0.979462
0.0683368 0.201457 -0.0118691 0.0475237 0.135084 -0.989694
-0.201666 0.132999 0.0118691 -0.143601 -0.00429435 0.989626
0.220934 0.0698761 0.0118691 -0.77189 0.208507 0.600592
-0.171032 0.327178 0.0118691 0.0490825 0.0124484 0.998717
0.378041 0.296021 -0.000405431 -0.0988739 0.986689 -0.129104
-0.217756 -0.124228 0.00860262 -0.325496 0.549345 0.769593
-0.255949 -0.279616 -0.0118691 0.209672 0.10426 -0.972197
-0.185727 0.257958 -0.0118691 -0.281989 -0.267828 -0.921277
0.287417 -0.035434 0.00986046 -0.338356 0.65938 0.671366
-0.0590109 -0.168758 -0.0118691 0.380723 0.207172 -0.901182
0.435261 -0.194866 -0.0114931 0.452974 -0.297346 -0.840476
0.0635244 0.22277 -0.0118691 0.0074999 -0.0676664 -0.99768
0.225285 0.448377 0.0118691 0.113487 0.0980578 0.988689
-0.138506 -0.357367 -0.0118691 -0.289688 0.147394 -0.945704
-0.222329 -0.183025 -0.0118691 -0.0237599 -0.0882405 -0.995816
-0.0569707 -0.258474 0.0118691 0.019565 -0.00130929 0.999808
-0.115935 0.20897 0.0118691 0.373993 -0.0236031 0.927131
-0.128926 0.383059 0.0118691 -0.0757294 0.139282 0.987353
-0.170661 -0.447992 0.0118691 0.157752 0.0323009 0.98695
0.434635 0.401307 -0.0118691 0.376007 0.387144 -0.841866
-0.187235 0.382176 0.0118691 0.0797113 -0.115764 0.990073
0.263027 0.35323 0.0118691 0.142286 -0.162688 0.976364
0.313594 0.284561 0.0118691 -0.0297012 0.051351 0.998239
0.428728 0.184838 0.00863922 -0.904211 0.352154 -0.24164
-0.149081 0.299411 0.0118691 -0.0770711 0.0403262 0.99621
0.183335 -0.34198 -0.0118691 0.0183416 -0.501349 -0.865051
0.384219 0.292675 -0.0118691 0.0471705 0.33503 -0.941026
-0.087114 0.32511 0.0118691 0.0140305 -0.00978083 0.999854
-0.231174 0.0788265 -0.0021227 -0.386974 -0.921897 -0.0188849
0.471967 -0.143714 0.00173473 0.907146 0.278928 0.315096
0.115654 0.352061 -0.0118691 0.0538906 0.0299173 -0.998099
0.306018 0.320343 0.000806272 0.941184 -0.293423 0.167559
-0.174455 0.420838 -0.0014863 0.010615 0.999925 0.00604164
-0.158601 -0.187477 0.0118691 -0.0191663 -0.000484913 0.999816
0.140994 0.278696 -0.0118691 0.117363 -0.224232 -0.967443
0.251103 0.230528 0.0118691 -0.0123125 -0.110173 0.993836
0.203376 0.459836 -0.0118691 -0.368936 0.704661 -0.606085
-0.286513 0.367556 0.0118691 -0.160529 0.0269128 0.986664
-0.366711 0.297011 -0.0078705 -0.840508 -0.109628 -0.530592
0.390194 -0.325587 -0.0118691 0.00613087 0.0386738 -0.999233
0.138067 0.0791082 0.0118691 -0.0664561 0.0718418 0.9952
-0.191315 0.10521 0.0118691 0.0275368 -0.13157 0.990924
-0.228486 0.148135 0.0118691 0.0540982 -0.0541861 0.997064
0.434973 -0.288308 -0.00704634 0.856714 0.120823 -0.501441
-0.349571 -0.25298 0.0118691 -0.0685019 0.00916033 0.997609
0.124267 0.081252 -0.0118691 -0.310586 0.0171656 -0.95039
0.280776 0.428537 0.0118691 -0.0705058 0.0456282 0.996467
-0.109777 0.255463 -0.0118691 -0.142349 0.158865 -0.976985
-0.23812 -0.184135 0.0118691 -0.110904 0.0284219 0.993425
0.234882 -0.175788 0.0118691 0.0235218 0.00915645 0.999681
-0.354568 0.260981 -0.000824571 -0.786397 -0.553137 -0.27499
-0.241036 0.317761 0.0118691 0.231267 0.0284822 0.972473
-0.182117 0.421768 0.00208211 0.274932 0.938875 0.207185
-0.199458 0.405294 0.0118691 -0.14582 -0.0914896 0.985072
0.115698 -0.143482 0.0118691 -0.148342 0.143138 0.978522
0.241442 0.177591 -0.0118691 -0.0732405 0.0996455 -0.992324
0.269594 0.276235 -0.0118691 0.124685 -0.00700502 -0.992172
-0.275897 0.371074 -0.0118691 -0.115449 -0.0581853 -0.991608
0.325788 -0.229454 0.0118691 -0.0437124 0.147734 0.988061
0.446324 0.202906 -0.0118691 -0.221839 0.377076 -0.899222
-0.188821 -0.309578 -0.0118691 -0.000649916 0.0638317 -0.99796
-0.164933 0.369796 -0.0118691 0.00799216 -0.0609389 -0.99811
-0.252434 0.334167 0.0118691 0.0993482 0.130611 0.986443
-0.33818 0.264023 0.0118691 -0.14647 0.0392227 0.988437
0.19792 -0.275806 -0.0118691 0.111163 0.210167 -0.971325
0.217487 0.434264 0.0118691 -0.00936765 -0.0336475 0.99939
0.274218 -0.268441 0.0118691 0.0696463 -0.114863 0.990937
-0.205641 -0.406759 -0.0118691 -0.149773 -0.080997 -0.985397
-0.173434 -0.366484 -0.0118691 -0.012524 -0.124324 -0.992163
-0.159362 -0.132911 -0.00059092 0.024894 0.998664 0.0452819
0.25492 0.296439 0.0118691 -0.172225 0.0915815 0.980791
-0.392683 -0.30519 -0.0118691 0.100703 -0.0557185 -0.993355
-0.201352 0.182476 -0.0118691 0.0215757 -0.0652172 -0.997638
0.251176 -0.227469 0.0118691 0.743585 -0.389222 0.543679
-0.200507 0.100265 -0.0118691 0.285092 -0.0976312 -0.953515
0.320623 0.162676 0.0118691 0.0876562 0.0856644 0.992461
0.212258 -0.216553 -0.0118691 0.0392705 0.0659352 -0.997051
-0.135011 0.305878 0.0118691 0.0108079 0.0220208 0.999699
-0.331201 0.389681 0.0118691 -0.219879 0.333457 0.916766
0.360205 -0.157842 0.0118691 -0.0133542 -0.235311 0.971828
0.463272 0.25306 -0.0118691 0.0405806 0.321354 -0.946089
0.261719 -0.211869 0.0118691 0.00349417 -0.132319 0.991201
-0.277587 -0.328 0.0118691 0.00301288 -0.0501222 0.998739
0.0473192 0.228104 0.0118691 -0.453379 -0.0160703 0.891173
-0.262925 -0.0761762 0.00549275 0.970366 -0.0124868 0.241318
0.267976 0.0212179 -0.0118691 -0.279442 -0.492655 -0.824138
0.257436 0.376878 0.0118691 -0.46781 0.14319 0.872153
0.297581 0.42319 -0.0118691 0.00028077 0.0690101 -0.997616
0.287292 0.262298 -0.0118691 0.205961 0.151684 -0.966733
0.262076 -0.104792 -0.0118691 -0.314208 0.0381221 -0.948588
-0.324041 0.402718 -0.00195384 -0.531063 0.829646 -0.172219
0.1128 -0.137197 0.00858188 -0.665966 0.56253 0.489948
0.237046 0.408235 -0.000113785 -0.403233 0.857786 0.318757
-0.264748 0.334441 0.0118691 -0.186518 0.112355 0.976006
-0.164369 -0.236192 -0.0118691 0.118615 0.010291 -0.992887
-0.21877 -0.13364 0.0118691 -0.191934 0.272988 0.942676
-0.215871 -0.411004 0.0118691 0.14547 0.275948 0.950101
0.245772 0.411427 -0.0118691 -0.152966 -0.585399 -0.796184
0.238946 0.312063 -0.0118691 -0.382283 0.205386 -0.900931
0.119612 0.286981 0.0118691 -0.213242 -0.183349 0.959641
0.244119 0.198951 -0.0118691 0.0204008 -0.116671 -0.992961
0.243311 -0.160169 0.0118691 0.093672 0.0642769 0.993526
0.182823 0.239248 0.00086844 -0.421744 -0.90671 0.0029017
-0.17034 0.278304 0.0118691 -0.082844 0.0816303 0.993214
-0.375116 -0.278528 -0.0118691 0.0500667 -0.0760074 -0.995849
-0.159673 0.382134 0.0118691 0.048188 0.0647477 0.996737
-0.0885494 -0.280176 0.0118691 0.145082 0.0445189 0.988418
-0.161271 -0.430663 0.0118691 0.138116 -0.0269781 0.990049
-0.229412 0.344572 -0.0118691 0.131931 -0.0480229 -0.990095
0.47357 0.347341 -0.0103303 0.612629 0.321216 -0.722154
0.307853 0.291785 0.0118691 0.0191872 -0.157671 0.987305
-0.262382 0.181154 0.0118691 0.012962 -0.0161933 0.999785
0.414032 0.0681812 0.0118691 0.450545 -0.664785 0.595878
-0.09421 -0.27243 0.0118691 0.0123989 0.102884 0.994616
0.312358 0.442645 0.0118691 0.0138791 -0.0151861 0.999788
0.367212 -0.280923 -0.0118691 0.193998 0.0150758 -0.980886
-0.20377 -0.222124 -0.0118691 -0.0786018 -0.00940234 -0.996862
0.364001 -0.327358 -0.0118691 -0.0925277 0.105937 -0.990059
-0.178143 -0.264038 0.0118691 0.270102 -0.0418773 0.961921
0.169289 -0.201555 0.0118691 0.00251068 0.00846707 0.999961
0.355424 -0.154836 0.0118691 -0.0453814 -0.149319 0.987747
0.3544 -0.298854 -0.0118691 0.00247449 0.12669 -0.991939
0.335032 -0.187764 -0.0118691 0.0741257 -0.0676225 -0.994954
0.163026 0.425834 -0.0118691 0.104577 -0.193064 -0.975597
-0.295254 0.148492 -0.0104145 -0.704999 -0.543536 -0.455571
0.358036 0.0657915 0.0118691 -0.148392 -0.178521 0.972682
0.415424 -0.198266 -0.0118691 0.165953 0.0735561 -0.983387
-0.349533 -0.310394 0.0118023 0.0198221 -0.00498586 0.999791
-0.190931 -0.382356 0.0118691 -0.0405895 -0.129123 0.990798
-0.250008 0.409833 0.0118691 0.0107279 0.0752284 0.997109
0.235091 0.253475 -0.0118691 0.0722305 0.0606344 -0.995543
0.466924 0.350392 0.0118691 0.686647 0.473624 0.55154
-0.341144 -0.167709 -0.0118691 -0.148752 0.123726 -0.981104
0.422385 0.328919 0.0118691 -0.513274 -0.337621 0.789026
-0.352888 0.375113 -0.00608897 -0.674819 0.708332 -0.207087
-0.0822254 0.348129 -0.0118691 -0.123812 0.3838 -0.915078
0.181928 0.391394 0.0118691 0.203738 -0.318437 0.925791
0.263174 0.395864 -0.0118691 -0.455537 0.342231 -0.821806
0.289544 -0.201528 0.0118691 0.0655165 0.0302679 0.997392
0.203662 0.153895 -0.0118691 -0.203946 -0.0820553 -0.975537
0.218081 -0.304237 -0.0118691 -0.152707 -0.0522317 -0.98689
-0.253756 0.101135 0.0118691 -0.0304564 -0.281214 0.959162
0.368059 0.245485 0.0103496 0.478664 -0.681852 0.553135
-0.262604 -0.269937 -0.0118691 0.201746 0.153632 -0.967314
0.138936 -0.177614 0.00225312 -0.817188 -0.56076 0.133238
0.275059 -0.287508 0.0118691 0.0533775 -0.179525 0.982304
0.37038 -0.255072 -0.0118691 -0.174828 0.216345 -0.960536
-0.297018 0.151038 -0.00022155 -0.856287 -0.498812 -0.134015
-0.259806 0.295049 0.0118691 -0.045794 0.127397 0.990794
-0.311275 -0.285215 0.0118691 0.0949854 -0.0410887 0.99463
-0.0683683 -0.190105 -0.0118691 -0.0481488 0.0902994 -0.99475
-0.238429 0.210386 -0.0118691 -0.0842597 -0.259804 -0.961978
0.27787 -0.0537646 -0.0012852 -0.975037 0.0625276 0.213059
-0.182735 0.125534 0.0118691 0.0598757 0.0932885 0.993837
-0.168539 0.419995 -0.000994742 -0.121021 0.976133 0.180327
0.106917 0.342462 -0.0118691 0.188916 -0.0189337 -0.981811
-0.201523 0.279236 0.0118691 0.114226 0.0201431 0.993251
-0.167002 0.181304 -0.0118691 -0.0122458 -0.0594476 -0.998156
0.453324 -0.150378 -0.0118691 -0.164638 0.188043 -0.968264
-0.367299 -0.110502 -0.00668371 -0.94037 0.0648294 -0.333919
-0.361212 -0.0843358 0.0118691 -0.248218 0.110491 0.962382
0.358519 -0.352569 -0.00108266 0.335832 -0.937709 -0.0889857
-0.200219 0.127058 -0.0118691 -0.108202 -0.0729099 -0.991452
-0.435012 -0.269781 -0.0118691 -0.0996448 -0.102843 -0.989694
0.454893 -0.33221 -0.0118691 0.167602 0.256521 -0.951896
0.0591934 0.160299 0.00574452 -0.808098 -0.433902 0.39838
0.234993 0.192228 0.0118691 -0.177971 0.0856494 0.980301
0.19985 0.0904582 -0.00739557 0.514363 0.830595 -0.213407
-0.468362 -0.214265 -0.0118691 0.0132695 0.817636 -0.575583
-0.238088 0.211335 0.0118691 -0.404733 0.0475312 0.913199
-0.385583 -0.297251 -0.0118691 -0.0718512 -0.0358824 -0.99677
-0.101753 0.269006 -0.0118691 0.0332541 0.0364118 -0.998783
-0.157002 -0.16212 -0.0118691 -0.0996127 0.0357867 -0.994383
0.467097 0.13431 0.0118691 0.567791 -0.27351 0.776406
0.184141 0.162407 0.0107659 -0.861528 0.209624 0.462414
-0.153387 0.186083 -0.0118691 0.00966065 -0.0801245 -0.996738
0.0621545 0.332993 -0.003465 -0.896867 0.392301 -0.204279
-0.340377 -0.0567886 0.0118691 -0.588527 0.123338 0.799015
-0.232551 0.091817 -0.0118691 0.121467 -0.0305137 -0.992126
0.329446 0.198601 -0.0118691 -0.0242567 0.0415312 -0.998843
0.213059 0.401781 0.0118691 0.25278 -0.635471 0.729575
0.304873 -0.437341 -0.00773877 0.869613 -0.217895 -0.443052
-0.0977757 -0.227109 0.0118691 0.0120539 -0.0700791 0.997469
0.0952204 0.226811 0.0118691 0.27085 -0.153015 0.950382
0.24565 0.286488 0.0118691 0.103755 0.184403 0.977359
0.276313 -0.095362 -0.0118691 0.13958 -0.148174 -0.979062
0.452893 0.225159 0.0118691 -0.271985 -0.0908459 0.958004
-0.177067 -0.256868 0.0118691 0.115113 0.0428711 0.992427
-0.14626 0.360647 -0.0118691 -0.161725 -0.0450286 -0.985808
-0.276566 -0.216677 -0.0118691 0.190641 -0.0568279 -0.980014
-0.325609 0.260451 0.0118691 0.21229 -0.0889604 0.973149
-0.317661 -0.165251 0.0118691 -0.0412736 -0.135443 0.989925
0.0776489 0.215418 0.0118691 -0.0948529 0.00905321 0.99545
0.345232 0.204423 0.0118691 0.740525 0.249874 0.623848
-0.237339 -0.122756 0.0118691 0.0864755 0.283451 0.95508
-0.147241 0.397749 -0.0118691 -0.0676773 -0.0774638 -0.994695
0.256673 0.0157697 0.00801909 -0.26221 -0.724205 0.637788
0.198313 0.429136 0.0118691 0.107429 -0.0253823 0.993889
0.266431 -0.316899 -0.0118691 0.0291109 -0.00477157 -0.999565
-0.243043 0.36876 0.0118691 0.225884 0.038234 0.973404
-0.14376 0.145412 -0.00723863 0.68519 -0.557125 -0.469175
0.323457 -0.332485 0.0118691 0.107741 0.0319963 0.993664
0.368196 0.0771713 0.0118691 0.220668 0.0799578 0.972066
-0.256854 0.142457 -0.0118691 0.0575265 0.0262283 -0.997999
0.176298 0.0996005 -0.0118691 0.31046 0.120782 -0.942882
0.286358 0.252308 -0.0118691 0.00799688 0.046595 -0.998882
0.483091 0.217189 -0.0118691 -0.044717 -0.022151 -0.998754
0.0740588 0.252678 0.0118691 -0.0863547 0.0774806 0.993247
0.29988 0.23239 -0.0118691 -0.271286 0.0390961 -0.961705
-0.197251 0.17054 0.0118691 0.0445243 0.222874 0.97383
0.454721 -0.135754 0.0118691 -0.319257 0.742874 0.588399
-0.118476 0.323012 -0.0118691 0.0957225 -0.0683314 -0.99306
-0.221683 0.148087 0.0118691 0.116846 -0.0235577 0.992871
0.37889 0.372119 -0.0074383 -0.737543 -0.660478 -0.14071
0.249088 -0.188448 0.0118691 0.0507366 0.244987 0.968198
0.151568 -0.192632 0.0118691 -0.675126 -0.173102 0.717106
-0.391619 -0.280695 -0.0118691 -0.224622 0.0482119 -0.973253
0.231251 0.142956 0.00862253 0.695889 -0.575486 0.429599
0.147539 -0.287562 0.0050903 -0.888157 0.445857 0.111307
0.413388 0.0918642 -0.0118691 -0.0562328 -0.124651 -0.990606
0.246829 0.26329 -0.0118691 -0.0718528 -0.167792 -0.9832
-0.310227 -0.0407028 -0.0118691 -0.0648879 -0.126055 -0.989899
-0.320209 -0.0918931 0.0118691 0.159361 -0.0703848 0.984708
-0.431446 -0.287995 -0.0118691 -0.434745 -0.247004 -0.866017
0.365955 0.109079 0.0118691 0.387407 -0.251805 0.886854
0.140099 0.378317 -0.0118691 0.0898222 -0.265851 -0.95982
-0.224045 -0.274252 -0.0118691 0.0672225 -0.00777148 -0.997708
0.435751 0.290864 -0.0118691 -0.0242786 -0.0372353 -0.999012
0.112984 0.0934922 -0.0118691 -0.0247215 -0.149895 -0.988393
0.350928 -0.300635 0.0118691 -0.208748 -0.0425834 0.977042
-0.0682268 -0.298108 -0.0118691 -0.0571459 -0.0356918 -0.997728
0.372524 -0.307141 0.0118691 0.010418 0.17612 0.984314
-0.19858 -0.364926 0.0118691 -0.283941 0.00740973 0.958813
-0.238043 -0.203701 0.0118691 0.0423688 0.0473428 0.99798
-0.131284 -0.175343 -0.0118691 0.253039 0.0540254 -0.965946
0.183344 0.0710729 0.0118691 -0.25695 -0.0197829 0.966222
-0.113768 -0.193317 0.0118691 0.118864 0.0266498 0.992553
-0.083437 0.300889 0.0118691 0.100989 -0.0334868 0.994324
-0.26732 -0.169096 0.0118691 0.1697 -0.0688246 0.98309
0.200744 0.188809 0.0118691 0.0329758 0.0402357 0.998646
-0.343078 -0.103245 0.0118691 -0.0969272 0.0279935 0.994898
-0.223682 0.375345 0.0118691 -0.111037 -0.0437829 0.992851
0.492284 0.274064 0.0118691 0.592919 0.0694409 0.802263
-0.285663 -0.0657471 0.0118691 0.097094 -0.00453682 0.995265
-0.158691 0.247841 0.0118691 -0.0647896 0.215952 0.974252
-0.125841 -0.239675 -0.0118691 -0.125908 0.0122195 -0.991967
-0.164143 -0.468875 -0.00951743 -0.395107 -0.756677 -0.520893
-0.33324 -0.308164 0.00171798 -0.268904 -0.946127 0.18037
-0.0987189 -0.175675 0.0118691 -0.147762 -0.037025 0.98833
-0.239394 0.42313 0.001881 -0.151262 0.981466 0.117658
0.317705 0.405673 -0.00365818 0.194735 0.958167 0.20975
0.332327 0.296021 0.00474566 0.0343133 0.943489 0.329624
-0.147646 -0.159112 0.0118691 -0.0198728 -0.0305898 0.999334
-0.339142 -0.169994 0.0118691 -0.478598 0.0767697 0.874672
-0.344253 -0.0293845 -0.0118691 -0.244642 0.8299 -0.501415
0.183262 -0.340278 -0.0118691 0.0739909 -0.344091 -0.936016
0.426753 0.296021 0.0109122 -0.352338 0.206416 0.912826
0.20686 -0.248944 -0.0118691 -0.11287 -0.0527107 -0.992211
0.332802 -0.251405 -0.0118691 -0.241548 -0.0481509 -0.969194
0.267509 0.036958 0.0118691 0.10776 -0.0143535 0.994073
0.389579 0.26005 0.00196183 0.437265 -0.896255 0.0743354
0.248361 -0.104742 0.0118691 -0.554557 0.480572 0.67935
-0.302083 -0.0457475 -0.0118691 0.0136007 -0.0880707 -0.996021
-0.156612 0.249082 -0.0118691 0.00867272 -0.172872 -0.984906
-0.363486 -0.187 -0.0118691 -0.461573 0.1205 -0.87888
0.273381 -0.0916885 0.0118691 -0.219023 -0.0144429 0.975613
0.46939 0.261843 -0.0118691 0.115624 0.0279057 -0.992901
0.405719 0.0795252 -0.0118691 -0.000644967 0.0368271 -0.999321
0.289917 -0.448162 0.0118691 -0.099284 -0.880499 0.463535
0.325334 0.402513 -0.00339961 -0.289998 -0.934926 -0.204485
-0.161801 -0.159019 0.0118691 0.162168 -0.0246833 0.986454
0.258952 -0.109253 -0.0118691 0.00090901 -0.040294 -0.999187
-0.312278 -0.101792 0.0118691 0.0881778 0.0493024 0.994884
-0.48577 -0.231489 0.00749505 -0.617264 -0.694247 0.370145
-0.198842 0.206266 0.0118691 -0.0463769 0.0438985 0.997959
-0.127982 -0.239458 0.0118691 0.106336 0.0742142 0.991557
-0.16242 0.208548 -0.0118691 0.163231 0.192985 -0.967529
-0.0628795 -0.228716 -0.0118691 -0.0473112 -0.024192 -0.998587
0.431696 0.368805 0.0118691 -0.117922 -0.0897801 0.988956
0.228772 0.452052 0.0118691 0.0924362 0.104121 0.99026
0.254718 0.016027 -0.00957078 -0.120304 -0.904479 -0.409201
-0.19177 -0.424638 -0.0118691 0.111594 -0.109156 -0.987741
-0.267251 0.13032 -0.0118691 -0.163483 -0.16686 -0.972333
0.101203 0.160611 -0.0118691 0.0866235 0.0441899 -0.995261
0.497168 0.26458 0.00147247 0.980151 0.191949 0.0496016
-0.176143 0.267368 0.0118691 -0.00520237 -0.210773 0.977521
-0.131139 -0.212005 0.0118691 -0.076164 0.113053 0.990665
-0.274503 0.325216 0.0118691 -0.0466795 -0.164556 0.985263
-0.364551 -0.331448 -0.0104638 0.816199 -0.309562 -0.487843
0.360621 0.285784 0.0118691 0.0477572 0.0485516 0.997678
-0.247672 -0.156015 -0.0118691 -0.0693217 -0.107042 -0.991835
0.260046 0.367305 0.0118691 -0.251451 0.0989897 0.962794
0.293986 0.233971 0.0118691 -0.125737 -0.0879201 0.98816
-0.149872 -0.173972 -0.0118691 0.199948 0.169384 -0.965054
-0.141764 0.213748 -0.0118691 -0.0633977 0.121208 -0.9906
0.108621 0.404898 -0.00232536 -0.646527 0.732381 -0.213593
-0.269853 -0.143454 0.0118691 -0.1719 0.0737571 0.982349
-0.277997 0.187084 -0.0118691 0.194076 0.0661305 -0.978755
-0.184685 -0.271471 0.0118691 0.166119 -0.113321 0.979573
-0.367351 -0.0904565 0.00124508 -0.988066 0.0848328 0.128562
-0.283958 -0.025121 0.00200677 0.100323 0.979769 0.173171
0.207767 0.0527362 0.0118691 -0.0666065 0.0235354 0.997502
-0.202289 0.204255 -0.0118691 -0.0556565 0.024831 -0.998141
0.330141 -0.313683 -0.0118691 -0.023486 0.0781792 -0.996663
0.391835 0.0495328 0.0113891 0.449376 -0.560963 0.695256
-0.0673805 -0.322999 -0.000819206 0.59277 -0.790145 -0.155868
-0.129471 -0.274171 0.0118691 -0.0114847 0.0463083 0.998861
0.182305 0.442167 0.0118691 -0.0291552 0.397476 0.917149
0.0997649 0.145365 0.0118691 0.00625235 0.029496 0.999545
0.239662 0.284494 0.0118691 -0.103234 0.162638 0.98127
0.296184 0.164604 -0.0118691 -0.236873 -0.000906669 -0.97154
0.137367 -0.140942 0.0079267 0.54859 0.763195 0.341442
-0.208423 0.421227 0.0118691 0.047482 0.567329 0.822121
-0.26472 -0.375602 0.00370008 -0.692223 -0.618549 0.371786
-0.363501 0.316897 -0.0118691 -0.288821 -0.167429 -0.942629
-0.282636 -0.0841989 0.0118691 0.0165992 0.0411256 0.999016
-0.238523 0.116616 0.0118691 0.36098 0.108564 0.926233
-0.302588 0.391448 -0.0118691 -0.0965968 -0.145806 -0.984586
-0.395109 -0.224155 0.0118691 0.0181427 0.0978494 0.995036
-0.424062 -0.315007 -0.00406611 -0.753247 -0.654707 -0.0630708
-0.15752 0.126521 -0.00800383 0.698002 -0.525633 -0.486317
0.456174 0.219163 0.0118691 -0.191996 -0.0690634 0.978963
0.320494 0.135396 -0.00327635 -0.640249 -0.749598 -0.167883
-0.40115 -0.247281 -0.0118691 -0.039392 -0.0716016 -0.996655
0.296034 0.352337 0.00886822 0.787644 0.136764 0.60076
-0.2079 -0.298449 0.0118691 0.139983 0.179253 0.973793
-0.285339 0.227972 -0.0118691 0.190193 -0.192852 -0.962619
0.395807 -0.261367 0.0118691 -0.0850341 -0.00456034 0.996368
-0.15315 0.28093 0.0118691 -0.0792817 -0.0271201 0.996483
-0.481329 -0.215224 -0.0118691 -0.18576 0.529165 -0.827936
0.354304 -0.281694 -0.0118691 -0.00891082 -0.183336 -0.98301
-0.240471 -0.320208 0.0118691 0.15357 -0.124739 0.980233
-0.228923 -0.175164 0.0118691 -0.0170205 -0.140282 0.989965
-0.311278 0.289409 -0.0118691 0.19391 -0.122832 -0.973299
0.269495 -0.378802 -0.0118691 0.0159963 -0.0171731 -0.999725
-0.247862 -0.185561 0.0118691 0.0791655 0.121284 0.989456
-0.280871 0.417869 -0.00773644 -0.223827 0.825511 -0.518105
0.081047 0.235269 0.0118691 -0.0494202 -0.0651732 0.996649
0.203236 0.0890558 -0.00822723 0.696908 0.71668 0.0262402
0.160826 -0.28332 0.0118691 -0.256247 0.11307 0.959975
-0.293354 -0.327898 0.010139 -0.52614 -0.453517 0.719374
0.274781 0.169687 0.00128919 -0.415485 -0.896352 0.154679
0.190256 0.296021 0.0055213 0.342147 0.9356 -0.0871149
0.233416 -0.148101 -0.0118691 -0.0896554 -0.0952178 -0.991411
-0.367978 -0.213312 0.0118691 -0.468429 -0.0504977 0.882057
0.283854 -0.355901 -0.0118691 0.0642779 -0.0635309 -0.995908
-0.0314146 -0.228143 -0.00871307 0.753289 0.189005 -0.629946
0.342086 -0.289124 0.0118691 -0.245097 0.0758368 0.966528
-0.304366 -0.185295 0.0118691 0.0176236 0.0778996 0.996805
0.292746 0.0566692 0.0118691 -0.0623515 -0.0603856 0.996226
-0.284764 -0.170478 0.0118691 -0.0154949 -0.0126464 0.9998
0.073746 0.25712 -0.0118691 0.0657529 0.0553989 -0.996297
-0.346813 0.330411 -0.0118691 0.21141 0.00144648 -0.977396
-0.225148 0.158723 -0.0118691 -0.123187 0.0551907 -0.990848
-0.222973 -0.306752 0.0118691 -0.131232 -0.00874619 0.991313
-0.219601 0.316271 -0.0118691 -0.033715 0.0155919 -0.99931
-0.098884 -0.2789 -0.0118691 0.0632014 -0.131278 -0.989329
0.23766 0.0182727 0.00285083 -0.144966 -0.978605 0.146006
0.0522808 0.251013 0.0118691 -0.288079 0.0361472 0.956924
-0.269453 0.216009 -0.0118691 -0.258811 0.071699 -0.963263
0.102777 0.3853 0.0118691 -0.120353 0.172079 0.977703
-0.360037 -0.19326 -0.0118691 -0.015329 0.00394523 -0.999875
0.217604 -0.320462 -0.0118691 -0.0447491 0.0284225 -0.998594
0.313781 0.0511397 -0.0118691 0.0497862 -0.0785125 -0.995669
-0.13301 -0.163719 0.0118691 -0.0809395 -0.206846 0.97502
0.387815 -0.148578 0.0118691 -0.0107417 0.107101 0.99419
0.301177 -0.0399209 0.0118691 0.736623 0.632808 0.238622
-0.256299 -0.326073 -0.0118691 -0.36439 0.0247303 -0.930918
-0.145706 -0.280237 0.0118691 -0.198151 0.220061 0.955149
-0.17557 -0.264933 -0.0118691 -0.0132105 -0.138946 -0.990212
-0.346834 0.251171 -0.0118691 -0.399557 -0.309966 -0.862714
-0.454876 -0.261066 -0.00137532 -0.658542 -0.752495 -0.00861034
-0.0287625 -0.284088 0.00156254 0.992023 -0.0903023 0.0879491
0.136085 -0.141686 0.0118691 0.383264 0.545872 0.745072
0.377286 -0.228017 -0.0118691 -0.0660433 -0.00949113 -0.997772
0.362312 -0.131771 -0.00856864 0.28277 0.680042 -0.676449
0.481315 0.328641 -0.00609452 0.77361 0.118132 -0.622553
-0.288947 -0.174392 -0.0118691 0.0671737 0.124583 -0.989933
0.245148 0.196409 -0.0118691 -0.0198299 -0.147262 -0.988899
-0.240809 -0.121139 0.0118691 -0.0594847 0.458064 0.886927
-0.155827 -0.472196 -0.00680077 0.0535627 -0.959315 -0.277212
0.165352 0.427803 -0.0118691 0.00502236 -0.351232 -0.936275
0.271907 -0.254429 0.0118691 -0.0329057 -0.0166993 0.999319
-0.152339 0.26184 0.0118691 0.107288 -0.0913321 0.990024
0.223221 -0.239616 -0.0118691 0.0173027 -0.0259435 -0.999514
-0.274786 0.230499 0.0118691 -0.0814331 -0.0385759 0.995932
0.197648 -0.279148 0.0118691 0.0357258 -0.0093136 0.999318
0.401537 0.0656585 0.0118691 0.221881 -0.634483 0.740406
0.221638 -0.344054 0.0118691 0.286846 -0.175095 0.941839
-0.396316 -0.262799 -0.0118691 -0.194082 0.141055 -0.970791
0.436596 0.085871 0.00249577 0.786958 -0.5999 0.144282
-0.238105 -0.244656 0.0118691 -0.0112336 -0.0148849 0.999826
0.490773 0.305809 0.00979269 0.841725 0.319554 0.435184
-0.0678578 0.332825 -0.00706643 0.925286 -0.0145841 -0.378991
-0.358146 -0.124505 0.0118691 -0.240406 0.00367505 0.970665
0.207002 0.0437706 -0.0118691 0.0117699 -0.0682502 -0.997599
-0.257338 0.182311 -0.0118691 0.0644979 -0.0857701 -0.994225
0.183002 -0.293155 -0.0118691 0.0712317 -0.0520382 -0.996101
0.25959 0.42029 -0.0118691 -0.103244 -0.0933874 -0.990262
-0.200328 -0.240854 0.0118691 -0.211801 -0.165148 0.963258
-0.294997 -0.179663 0.0118691 -0.120669 0.156367 0.9803
0.242552 -0.121669 0.0118691 -0.0475328 0.5513 0.832952
-0.392057 -0.237829 -0.0118691 -0.208837 -0.0750454 -0.975067
0.328331 -0.161425 0.0118691 -0.103304 -0.0928453 0.990307
0.429675 0.304577 0.0118691 -0.708753 0.00910976 0.705398
0.229933 0.457908 -0.0118691 0.198031 0.0982105 -0.975263
0.245626 0.468919 0.00286245 0.00999971 0.977974 0.208487
0.464333 0.122019 0.00479996 0.944905 -0.293935 0.14407
0.0504256 0.222737 -0.0118691 -0.296618 -0.148364 -0.943401
0.0557116 0.266983 0.0118691 -0.104958 0.0451004 0.993453
-0.298992 0.269897 0.0118691 0.0396215 0.0367741 0.998538
0.269501 -0.281745 -0.0118691 0.100544 -0.0319454 -0.99442
-0.0665258 -0.290992 0.0118691 0.0697542 -0.0741319 0.994806
-0.203487 -0.355849 0.0118691 -0.182772 0.166684 0.968922
-0.388132 -0.326001 -0.0118691 0.0715168 -0.0134573 -0.997349
0.278228 -0.334343 0.0118691 -0.071223 -0.146933 0.986579
-0.351797 0.351304 -0.0118691 -0.162667 -0.0100023 -0.98663
0.0665964 0.216116 0.0118691 0.0813393 -0.0897821 0.992634
-0.419625 -0.289487 -0.0118691 -0.0397381 0.00335472 -0.999205
0.239863 -0.262394 -0.0118691 0.145374 -0.0664291 -0.987144
0.259361 -0.104895 -0.0118691 -0.225233 0.158655 -0.961301
-0.248816 0.123052 0.0118691 -0.0528902 0.0670495 0.996347
-0.133925 -0.137294 -0.00133586 -0.520591 0.838319 -0.161882
0.420297 -0.256543 0.00122643 0.892768 0.446334 0.0612471
0.147437 -0.196013 0.00639236 -0.958014 -0.261228 0.118191
0.197112 0.161008 0.0118691 0.125428 -0.133778 0.983042
-0.331326 -0.207378 -0.0118691 -0.357078 -0.0434066 -0.933066
0.0818591 0.116122 0.00313962 -0.671588 -0.740826 -0.0121148
0.363359 0.102107 -0.000457466 0.502043 -0.855725 0.125246
-0.0848647 -0.163018 -0.0118691 -0.145817 -0.0637504 -0.987255
0.442665 0.363364 -0.0118691 0.0497419 0.131024 -0.990131
0.248613 -0.306058 0.0118691 0.0474681 -0.0137161 0.998779
0.362124 0.146135 -0.00178611 0.965052 0.244838 -0.0934309
-0.116469 0.285142 0.0118691 -0.120777 0.0238245 0.992394
-0.225371 0.0845034 -0.0118691 0.0930926 -0.367792 -0.925237
-0.267349 -0.0971113 0.0118691 0.321782 -0.0268494 0.946433
0.224401 0.427661 0.0118691 0.0869327 0.00532882 0.9962
0.273093 -0.357351 -0.0118691 0.0850392 -0.171101 -0.981577
-0.261861 0.344498 0.0118691 -6.5209e-05 -0.101125 0.994874
0.328564 -0.27566 -0.0118691 0.0945032 0.138774 -0.985805
0.242356 -0.359232 -0.0118691 -0.0971823 -0.0352364 -0.994643
-0.219182 -0.179003 -0.0118691 0.093265 0.120467 -0.988327
0.491205 0.221553 -0.0118691 0.333711 0.10025 -0.93733
-0.262293 -0.108579 -0.0118691 0.571265 0.479385 -0.666217
-0.189494 -0.207469 0.0118691 0.0920788 -0.0332359 0.995197
-0.425664 -0.298242 -0.0118691 -0.297933 -0.114456 -0.9477
0.176498 0.382647 -0.0076555 0.46752 -0.709272 -0.527596
-0.318331 -0.025121 -0.0116741 0.144847 0.604253 -0.783516
0.0908219 0.283341 -0.0118691 0.094557 0.142992 -0.985197
0.275769 0.362045 0.0118691 0.0107717 -0.214558 0.976652
0.30088 -0.341463 -0.0118691 -0.0680116 0.0200502 -0.997483
-0.407228 -0.280641 -0.0118691 0.0924862 -0.0440512 -0.994739
0.43754 0.156296 -0.0118691 -0.0415366 0.0156112 -0.999015
-0.221151 0.212447 -0.0118691 0.0351514 -0.0713689 -0.99683
-0.22806 0.253305 -0.0118691 -0.184875 -0.00157925 -0.982761
-0.327024 -0.156224 0.0118691 0.0548998 0.112825 0.992097
-0.308107 -0.15773 0.0118691 0.0880926 0.0431035 0.995179
0.314965 -0.404585 0.000680923 0.717591 -0.696238 -0.017773
-0.343499 -0.0539114 -0.0118691 0.0111679 -0.200952 -0.979537
0.436682 0.326769 0.0118691 -0.0140879 -0.126248 0.991899
-0.209904 -0.210201 -0.0118691 0.0693237 -0.0535783 -0.996154
0.0575261 0.321819 -0.00474715 -0.91896 0.297705 -0.258621
0.370337 -0.154548 -0.0118691 -0.190546 -0.036207 -0.98101
0.146075 0.433728 0.00126278 -0.528333 0.814473 0.239787
-0.374387 -0.295675 -0.0118691 0.147341 0.0106353 -0.989029
0.261205 0.0298818 0.0118691 -0.204572 -0.134446 0.969575
-0.150503 -0.256116 -0.0118691 -0.0296184 -0.102027 -0.994341
0.243554 -0.151294 -0.0118691 0.0204019 -0.133791 -0.990799
-0.27691 0.155743 -0.0118691 -0.0207785 -0.0742284 -0.997025
-0.154698 0.13846 0.0118691 0.437722 -0.328993 0.836757
0.216414 0.283907 0.0118691 -0.0415809 -0.101255 0.993991
-0.0934853 -0.322228 0.0118691 0.0199145 -0.154357 0.987814
0.238564 -0.310208 -0.0118691 0.0234681 0.00755788 -0.999696
0.409613 0.338445 -0.00546765 -0.642015 -0.697791 -0.317654
-0.0858951 0.348533 -0.0118691 0.0217857 0.297661 -0.954423
0.439853 -0.332596 0.0118691 -0.0545941 0.0252766 0.998189
0.116227 0.0769432 0.0118691 -0.460407 -0.585575 0.667179
-0.294525 -0.122154 -0.0118691 -0.0505502 -0.191882 -0.980115
0.343958 0.241218 0.0118691 0.173931 -0.0364605 0.984083
-0.319723 0.289403 0.0118691 0.0535378 -0.0592961 0.996804
-0.0604429 -0.196878 0.0118691 -0.118541 0.0266904 0.99259
-0.299651 0.356757 -0.0118691 -0.488436 -0.14388 -0.860656
0.45668 -0.348575 -0.0118691 0.055215 -0.788669 -0.612333
0.172299 -0.322482 -0.0118691 -0.128953 -0.103746 -0.986209
0.167775 0.11019 -0.011858 -0.175854 0.319743 -0.931043
0.063992 0.337429 -0.00353539 -0.900574 0.361196 -0.241876
-0.283423 0.231916 0.0118691 -0.0771497 -0.0979503 0.992196
